# .PCD v0.7 - Point Cloud Data file format
VERSION 0.7
FIELDS x y z
SIZE 4 4 4
TYPE F F F
COUNT 1 1 1
WIDTH 1346
HEIGHT 1
VIEWPOINT 0 0 0 1 0 0 0
POINTS 1346
DATA ascii
0.048277792 -0.045685694 0.37200001
0.048925813 -0.045685694 0.37200001
0.049573839 -0.045685694 0.37200001
0.05008686 -0.045562886 0.37100002
0.050459646 -0.045317262 0.36900002
0.051102445 -0.045317262 0.36900002
0.051605012 -0.045194451 0.36800003
0.052246068 -0.045194451 0.36800003
0.052887123 -0.045194451 0.36800003
0.053673636 -0.045317262 0.36900002
0.054316435 -0.045317262 0.36900002
0.054512408 -0.044948827 0.36600003
0.05514998 -0.044948827 0.36600003
0.055635128 -0.04482602 0.36500001
0.056270957 -0.04482602 0.36500001
0.05690679 -0.04482602 0.36500001
0.057542618 -0.04482602 0.36500001
0.058178447 -0.04482602 0.36500001
0.058653142 -0.044703208 0.36400002
0.059287231 -0.044703208 0.36400002
0.0597567 -0.044580396 0.36300001
0.060389046 -0.044580396 0.36300001
0.061021391 -0.044580396 0.36300001
0.061483894 -0.044457585 0.36200002
0.0621145 -0.044457585 0.36200002
0.062571771 -0.044334773 0.36100003
0.063200638 -0.044334773 0.36100003
0.063829497 -0.044334773 0.36100003
0.0398378 -0.045764085 0.37800002
0.040496275 -0.045764085 0.37800002
0.041154753 -0.045764085 0.37800002
0.041813228 -0.045764085 0.37800002
0.042359345 -0.045643017 0.377
0.04301608 -0.045643017 0.377
0.04355697 -0.045521948 0.37600002
0.044211961 -0.045521948 0.37600002
0.044866953 -0.045521948 0.37600002
0.045400877 -0.045400877 0.37500003
0.045931317 -0.045279808 0.37400001
0.046582825 -0.045279808 0.37400001
0.047108039 -0.04515874 0.37300003
0.047757804 -0.04515874 0.37300003
0.04840757 -0.04515874 0.37300003
0.048925813 -0.045037672 0.37200001
0.049573839 -0.045037672 0.37200001
0.05008686 -0.0449166 0.37100002
0.050596394 -0.044795532 0.37
0.051240932 -0.044795532 0.37
0.051885474 -0.044795532 0.37
0.052388038 -0.044674464 0.36900002
0.053030837 -0.044674464 0.36900002
0.053673636 -0.044674464 0.36900002
0.054169234 -0.044553395 0.36800003
0.054661352 -0.044432327 0.36700001
0.05514998 -0.044311255 0.36600003
0.055787552 -0.044311255 0.36600003
0.056425124 -0.044311255 0.36600003
0.05690679 -0.044190187 0.36500001
0.057542618 -0.044190187 0.36500001
0.058178447 -0.044190187 0.36500001
0.05881428 -0.044190187 0.36500001
0.059450109 -0.044190187 0.36500001
0.059921321 -0.044069119 0.36400002
0.060389046 -0.043948051 0.36300001
0.061021391 -0.043948051 0.36300001
0.061483894 -0.043826982 0.36200002
0.0621145 -0.043826982 0.36200002
0.062745102 -0.043826982 0.36200002
0.063375704 -0.043826982 0.36200002
0.064006314 -0.043826982 0.36200002
0.039943192 -0.045224935 0.37900001
0.040496275 -0.04510561 0.37800002
0.041154753 -0.04510561 0.37800002
0.041813228 -0.04510561 0.37800002
0.042471703 -0.04510561 0.37800002
0.04301608 -0.044986282 0.377
0.043672815 -0.044986282 0.377
0.044329546 -0.044986282 0.377
0.044986282 -0.044986282 0.377
0.045521948 -0.044866953 0.37600002
0.046054129 -0.044747628 0.37500003
0.046707377 -0.044747628 0.37500003
0.047234334 -0.0446283 0.37400001
0.047757804 -0.044508975 0.37300003
0.04840757 -0.044508975 0.37300003
0.049057335 -0.044508975 0.37300003
0.049573839 -0.044389647 0.37200001
0.050221864 -0.044389647 0.37200001
0.050733142 -0.044270318 0.37100002
0.051379424 -0.044270318 0.37100002
0.051885474 -0.044150993 0.37
0.052246068 -0.04391234 0.36800003
0.052887123 -0.04391234 0.36800003
0.053673636 -0.044031665 0.36900002
0.054169234 -0.04391234 0.36800003
0.054661352 -0.043793011 0.36700001
0.05514998 -0.043673683 0.36600003
0.055787552 -0.043673683 0.36600003
0.056425124 -0.043673683 0.36600003
0.057062697 -0.043673683 0.36600003
0.057542618 -0.043554358 0.36500001
0.058178447 -0.043554358 0.36500001
0.05881428 -0.043554358 0.36500001
0.059450109 -0.043554358 0.36500001
0.059921321 -0.04343503 0.36400002
0.060389046 -0.043315705 0.36300001
0.061021391 -0.043315705 0.36300001
0.061653741 -0.043315705 0.36300001
0.062286086 -0.043315705 0.36300001
0.062745102 -0.043196376 0.36200002
0.063375704 -0.043196376 0.36200002
0.064183123 -0.043315705 0.36300001
0.0398378 -0.044447131 0.37800002
0.040496275 -0.044447131 0.37800002
0.041263629 -0.044564717 0.37900001
0.041923847 -0.044564717 0.37900001
0.042471703 -0.044447131 0.37800002
0.043130182 -0.044447131 0.37800002
0.043672815 -0.044329546 0.377
0.044329546 -0.044329546 0.377
0.044986282 -0.044329546 0.377
0.045521948 -0.044211961 0.37600002
0.046054129 -0.044094376 0.37500003
0.046707377 -0.044094376 0.37500003
0.047234334 -0.043976791 0.37400001
0.047885843 -0.043976791 0.37400001
0.04840757 -0.043859206 0.37300003
0.049057335 -0.043859206 0.37300003
0.049573839 -0.043741621 0.37200001
0.050221864 -0.043741621 0.37200001
0.050869886 -0.043741621 0.37200001
0.051379424 -0.043624036 0.37100002
0.051885474 -0.043506451 0.37
0.052530013 -0.043506451 0.37
0.053030837 -0.043388866 0.36900002
0.053673636 -0.043388866 0.36900002
0.054169234 -0.043271285 0.36800003
0.054810293 -0.043271285 0.36800003
0.055300664 -0.043153699 0.36700001
0.05593998 -0.043153699 0.36700001
0.056425124 -0.043036114 0.36600003
0.057062697 -0.043036114 0.36600003
0.057542618 -0.042918529 0.36500001
0.058178447 -0.042918529 0.36500001
0.05881428 -0.042918529 0.36500001
0.059450109 -0.042918529 0.36500001
0.060085937 -0.042918529 0.36500001
0.060555406 -0.042800944 0.36400002
0.061189495 -0.042800944 0.36400002
0.061653741 -0.042683359 0.36300001
0.062286086 -0.042683359 0.36300001
0.062918432 -0.042683359 0.36300001
0.063550778 -0.042683359 0.36300001
0.064183123 -0.042683359 0.36300001
0.064815469 -0.042683359 0.36300001
0.039943192 -0.043904498 0.37900001
0.04060341 -0.043904498 0.37900001
0.041263629 -0.043904498 0.37900001
0.041923847 -0.043904498 0.37900001
0.042471703 -0.043788657 0.37800002
0.043130182 -0.043788657 0.37800002
0.043788657 -0.043788657 0.37800002
0.044329546 -0.043672815 0.377
0.044986282 -0.043672815 0.377
0.045643017 -0.043672815 0.377
0.04617694 -0.04355697 0.37600002
0.046707377 -0.043441128 0.37500003
0.047234334 -0.043325286 0.37400001
0.047885843 -0.043325286 0.37400001
0.048537347 -0.043325286 0.37400001
0.049057335 -0.043209441 0.37300003
0.049707104 -0.043209441 0.37300003
0.050356869 -0.043209441 0.37300003
0.050869886 -0.043093599 0.37200001
0.051517911 -0.043093599 0.37200001
0.052025706 -0.042977754 0.37100002
0.052671988 -0.042977754 0.37100002
0.053030837 -0.042746071 0.36900002
0.053673636 -0.042746071 0.36900002
0.054169234 -0.042630225 0.36800003
0.054810293 -0.042630225 0.36800003
0.055451348 -0.042630225 0.36800003
0.056092404 -0.042630225 0.36800003
0.056579292 -0.042514384 0.36700001
0.057062697 -0.042398542 0.36600003
0.057700269 -0.042398542 0.36600003
0.058178447 -0.042282697 0.36500001
0.05881428 -0.042282697 0.36500001
0.059450109 -0.042282697 0.36500001
0.060085937 -0.042282697 0.36500001
0.060555406 -0.042166855 0.36400002
0.061189495 -0.042166855 0.36400002
0.061823584 -0.042166855 0.36400002
0.062286086 -0.04205101 0.36300001
0.062918432 -0.04205101 0.36300001
0.063550778 -0.04205101 0.36300001
0.064359933 -0.042166855 0.36400002
0.064994022 -0.042166855 0.36400002
0.040153973 -0.043472484 0.38100001
0.040710542 -0.043358382 0.38000003
0.041263629 -0.04324428 0.37900001
0.041923847 -0.04324428 0.37900001
0.042584065 -0.04324428 0.37900001
0.04324428 -0.04324428 0.37900001
0.043788657 -0.043130182 0.37800002
0.044447131 -0.043130182 0.37800002
0.044986282 -0.04301608 0.377
0.045643017 -0.04301608 0.377
0.04617694 -0.042901978 0.37600002
0.046707377 -0.042787876 0.37500003
0.047360629 -0.042787876 0.37500003
0.047885843 -0.042673778 0.37400001
0.048537347 -0.042673778 0.37400001
0.049188856 -0.042673778 0.37400001
0.049707104 -0.042559676 0.37300003
0.050356869 -0.042559676 0.37300003
0.050869886 -0.042445574 0.37200001
0.051517911 -0.042445574 0.37200001
0.052025706 -0.042331472 0.37100002
0.052530013 -0.042217374 0.37
0.053174552 -0.042217374 0.37
0.053819094 -0.042217374 0.37
0.054316435 -0.042103272 0.36900002
0.054959234 -0.042103272 0.36900002
0.055451348 -0.04198917 0.36800003
0.056092404 -0.04198917 0.36800003
0.056579292 -0.041875068 0.36700001
0.057062697 -0.04176097 0.36600003
0.057700269 -0.04176097 0.36600003
0.058337841 -0.04176097 0.36600003
0.05881428 -0.041646868 0.36500001
0.059450109 -0.041646868 0.36500001
0.060085937 -0.041646868 0.36500001
0.06072177 -0.041646868 0.36500001
0.061189495 -0.041532766 0.36400002
0.061823584 -0.041532766 0.36400002
0.062457673 -0.041532766 0.36400002
0.063091762 -0.041532766 0.36400002
0.063725851 -0.041532766 0.36400002
0.064359933 -0.041532766 0.36400002
0.064994022 -0.041532766 0.36400002
0.040259365 -0.042921141 0.38200003
0.040710542 -0.042696424 0.38000003
0.041372504 -0.042696424 0.38000003
0.041923847 -0.042584065 0.37900001
0.042584065 -0.042584065 0.37900001
0.04324428 -0.042584065 0.37900001
0.043904498 -0.042584065 0.37900001
0.044447131 -0.042471703 0.37800002
0.04510561 -0.042471703 0.37800002
0.045643017 -0.042359345 0.377
0.046299748 -0.042359345 0.377
0.046956483 -0.042359345 0.377
0.047360629 -0.042134628 0.37500003
0.047885843 -0.042022269 0.37400001
0.048537347 -0.042022269 0.37400001
0.049188856 -0.042022269 0.37400001
0.049707104 -0.041909911 0.37300003
0.050356869 -0.041909911 0.37300003
0.050869886 -0.041797552 0.37200001
0.051517911 -0.041797552 0.37200001
0.052165937 -0.041797552 0.37200001
0.052671988 -0.04168519 0.37100002
0.05331827 -0.04168519 0.37100002
0.053819094 -0.041572832 0.37
0.054463632 -0.041572832 0.37
0.054959234 -0.041460473 0.36900002
0.055602029 -0.041460473 0.36900002
0.056092404 -0.041348115 0.36800003
0.056733459 -0.041348115 0.36800003
0.057062697 -0.041123398 0.36600003
0.057857919 -0.041235756 0.36700001
0.058337841 -0.041123398 0.36600003
0.058975413 -0.041123398 0.36600003
0.059450109 -0.041011039 0.36500001
0.060085937 -0.041011039 0.36500001
0.06072177 -0.041011039 0.36500001
0.061357599 -0.041011039 0.36500001
0.061993428 -0.041011039 0.36500001
0.062457673 -0.040898677 0.36400002
0.063091762 -0.040898677 0.36400002
0.063725851 -0.040898677 0.36400002
0.064359933 -0.040898677 0.36400002
0.064994022 -0.040898677 0.36400002
0.040259365 -0.042255696 0.38200003
0.040817674 -0.042145081 0.38100001
0.041372504 -0.042034462 0.38000003
0.042034462 -0.042034462 0.38000003
0.042696424 -0.042034462 0.38000003
0.04324428 -0.041923847 0.37900001
0.043904498 -0.041923847 0.37900001
0.044564717 -0.041923847 0.37900001
0.04510561 -0.041813228 0.37800002
0.045764085 -0.041813228 0.37800002
0.046299748 -0.041702613 0.377
0.046956483 -0.041702613 0.377
0.047486924 -0.041591994 0.37600002
0.048013877 -0.041481379 0.37500003
0.048667129 -0.041481379 0.37500003
0.049188856 -0.041370761 0.37400001
0.049840365 -0.041370761 0.37400001
0.050491873 -0.041370761 0.37400001
0.051006634 -0.041260142 0.37300003
0.051656399 -0.041260142 0.37300003
0.052165937 -0.041149527 0.37200001
0.052813958 -0.041149527 0.37200001
0.053461984 -0.041149527 0.37200001
0.053964552 -0.041038908 0.37100002
0.054463632 -0.040928293 0.37
0.055108175 -0.040928293 0.37
0.055602029 -0.040817674 0.36900002
0.056244828 -0.040817674 0.36900002
0.056733459 -0.040707059 0.36800003
0.057374515 -0.040707059 0.36800003
0.05801557 -0.040707059 0.36800003
0.058497235 -0.04059644 0.36700001
0.058975413 -0.040485825 0.36600003
0.059612986 -0.040485825 0.36600003
0.060085937 -0.040375207 0.36500001
0.06072177 -0.040375207 0.36500001
0.061357599 -0.040375207 0.36500001
0.061993428 -0.040375207 0.36500001
0.06262926 -0.040375207 0.36500001
0.063265085 -0.040375207 0.36500001
0.063900918 -0.040375207 0.36500001
0.06453675 -0.040375207 0.36500001
0.040259365 -0.041590251 0.38200003
0.04092481 -0.041590251 0.38200003
0.041481379 -0.041481379 0.38100001
0.042145081 -0.041481379 0.38100001
0.042696424 -0.041372504 0.38000003
0.043358382 -0.041372504 0.38000003
0.043904498 -0.041263629 0.37900001
0.044564717 -0.041263629 0.37900001
0.045224935 -0.041263629 0.37900001
0.045764085 -0.041154753 0.37800002
0.04642256 -0.041154753 0.37800002
0.046956483 -0.041045878 0.377
0.047613218 -0.041045878 0.377
0.048141915 -0.040937003 0.37600002
0.048667129 -0.040828127 0.37500003
0.049320377 -0.040828127 0.37500003
0.049840365 -0.040719252 0.37400001
0.050491873 -0.040719252 0.37400001
0.051143382 -0.040719252 0.37400001
0.051656399 -0.040610377 0.37300003
0.052306168 -0.040610377 0.37300003
0.052813958 -0.040501501 0.37200001
0.053461984 -0.040501501 0.37200001
0.054110009 -0.040501501 0.37200001
0.054758031 -0.040501501 0.37200001
0.055108175 -0.040283751 0.37
0.055602029 -0.040174879 0.36900002
0.056244828 -0.040174879 0.36900002
0.056733459 -0.040066004 0.36800003
0.057374515 -0.040066004 0.36800003
0.05801557 -0.040066004 0.36800003
0.058656629 -0.040066004 0.36800003
0.059136547 -0.039957128 0.36700001
0.059612986 -0.039848253 0.36600003
0.060250558 -0.039848253 0.36600003
0.06072177 -0.039739378 0.36500001
0.061357599 -0.039739378 0.36500001
0.061993428 -0.039739378 0.36500001
0.06262926 -0.039739378 0.36500001
0.063265085 -0.039739378 0.36500001
0.063900918 -0.039739378 0.36500001
0.06453675 -0.039739378 0.36500001
0.040259365 -0.04092481 0.38200003
0.04092481 -0.04092481 0.38200003
0.041590251 -0.04092481 0.38200003
0.042145081 -0.040817674 0.38100001
0.042808782 -0.040817674 0.38100001
0.043472484 -0.040817674 0.38100001
0.044020344 -0.040710542 0.38000003
0.044564717 -0.04060341 0.37900001
0.045224935 -0.04060341 0.37900001
0.045885153 -0.04060341 0.37900001
0.04642256 -0.040496275 0.37800002
0.047081038 -0.040496275 0.37800002
0.047739513 -0.040496275 0.37800002
0.048269954 -0.040389143 0.377
0.048796907 -0.040282011 0.37600002
0.049320377 -0.040174879 0.37500003
0.049973629 -0.040174879 0.37500003
0.050491873 -0.040067744 0.37400001
0.051143382 -0.040067744 0.37400001
0.05179489 -0.040067744 0.37400001
0.052306168 -0.039960612 0.37300003
0.052955933 -0.039960612 0.37300003
0.053605698 -0.039960612 0.37300003
0.054110009 -0.03985348 0.37200001
0.054758031 -0.03985348 0.37200001
0.055406056 -0.03985348 0.37200001
0.055602029 -0.03953208 0.36900002
0.056244828 -0.03953208 0.36900002
0.056733459 -0.039424945 0.36800003
0.057374515 -0.039424945 0.36800003
0.05801557 -0.039424945 0.36800003
0.058656629 -0.039424945 0.36800003
0.059136547 -0.039317813 0.36700001
0.059612986 -0.039210681 0.36600003
0.060250558 -0.039210681 0.36600003
0.06072177 -0.039103549 0.36500001
0.061357599 -0.039103549 0.36500001
0.061993428 -0.039103549 0.36500001
0.06262926 -0.039103549 0.36500001
0.063265085 -0.039103549 0.36500001
0.063900918 -0.039103549 0.36500001
0.06471356 -0.039210681 0.36600003
0.040364757 -0.040364757 0.38300002
0.04092481 -0.040259365 0.38200003
0.041590251 -0.040259365 0.38200003
0.042255696 -0.040259365 0.38200003
0.042808782 -0.040153973 0.38100001
0.043472484 -0.040153973 0.38100001
0.044020344 -0.040048584 0.38000003
0.044682302 -0.040048584 0.38000003
0.045344263 -0.040048584 0.38000003
0.045885153 -0.039943192 0.37900001
0.046545371 -0.039943192 0.37900001
0.04720559 -0.039943192 0.37900001
0.047739513 -0.0398378 0.37800002
0.048269954 -0.039732408 0.377
0.048926685 -0.039732408 0.377
0.049451899 -0.039627019 0.37600002
0.049973629 -0.039521627 0.37500003
0.050626878 -0.039521627 0.37500003
0.051143382 -0.039416235 0.37400001
0.05179489 -0.039416235 0.37400001
0.052306168 -0.039310846 0.37300003
0.052955933 -0.039310846 0.37300003
0.053605698 -0.039310846 0.37300003
0.054110009 -0.039205454 0.37200001
0.054758031 -0.039205454 0.37200001
0.055257116 -0.039100062 0.37100002
0.056092404 -0.038783889 0.36800003
0.056733459 -0.038783889 0.36800003
0.057374515 -0.038783889 0.36800003
0.05801557 -0.038783889 0.36800003
0.058656629 -0.038783889 0.36800003
0.059136547 -0.038678501 0.36700001
0.059775863 -0.038678501 0.36700001
0.060250558 -0.038573109 0.36600003
0.06088813 -0.038573109 0.36600003
0.061525702 -0.038573109 0.36600003
0.062163275 -0.038573109 0.36600003
0.06262926 -0.038467716 0.36500001
0.063265085 -0.038467716 0.36500001
0.064075992 -0.038573109 0.36600003
0.06471356 -0.038573109 0.36600003
0.040364757 -0.039697569 0.38300002
0.041031942 -0.039697569 0.38300002
0.041590251 -0.03959392 0.38200003
0.042255696 -0.03959392 0.38200003
0.042921141 -0.03959392 0.38200003
0.043586586 -0.03959392 0.38200003
0.044136185 -0.039490271 0.38100001
0.044682302 -0.039386623 0.38000003
0.045344263 -0.039386623 0.38000003
0.046006221 -0.039386623 0.38000003
0.046545371 -0.039282974 0.37900001
0.04720559 -0.039282974 0.37900001
0.047739513 -0.039179325 0.37800002
0.048269954 -0.039075676 0.377
0.048926685 -0.039075676 0.377
0.049451899 -0.038972028 0.37600002
0.05010689 -0.038972028 0.37600002
0.050761882 -0.038972028 0.37600002
0.05128013 -0.038868379 0.37500003
0.05179489 -0.03876473 0.37400001
0.052446399 -0.03876473 0.37400001
0.052955933 -0.038661078 0.37300003
0.053605698 -0.038661078 0.37300003
0.054255463 -0.038661078 0.37300003
0.054905232 -0.038661078 0.37300003
0.056733459 -0.038142834 0.36800003
0.057374515 -0.038142834 0.36800003
0.05801557 -0.038142834 0.36800003
0.058656629 -0.038142834 0.36800003
0.059136547 -0.038039185 0.36700001
0.059775863 -0.038039185 0.36700001
0.060250558 -0.037935536 0.36600003
0.06088813 -0.037935536 0.36600003
0.061525702 -0.037935536 0.36600003
0.062163275 -0.037935536 0.36600003
0.062800847 -0.037935536 0.36600003
0.063438416 -0.037935536 0.36600003
0.064075992 -0.037935536 0.36600003
0.040470146 -0.03913229 0.384
0.041031942 -0.039030384 0.38300002
0.041699126 -0.039030384 0.38300002
0.042366315 -0.039030384 0.38300002
0.043033499 -0.039030384 0.38300002
0.043586586 -0.038928475 0.38200003
0.044252031 -0.038928475 0.38200003
0.044799887 -0.03882657 0.38100001
0.045344263 -0.038724661 0.38000003
0.046006221 -0.038724661 0.38000003
0.046545371 -0.038622756 0.37900001
0.04720559 -0.038622756 0.37900001
0.047865808 -0.038622756 0.37900001
0.048526026 -0.038622756 0.37900001
0.048926685 -0.038418941 0.377
0.04958342 -0.038418941 0.377
0.05010689 -0.038317036 0.37600002
0.050761882 -0.038317036 0.37600002
0.05128013 -0.038215127 0.37500003
0.05179489 -0.038113222 0.37400001
0.052446399 -0.038113222 0.37400001
0.053097904 -0.038113222 0.37400001
0.053605698 -0.038011312 0.37300003
0.054255463 -0.038011312 0.37300003
0.054905232 -0.038011312 0.37300003
0.058497235 -0.037399873 0.36700001
0.059136547 -0.037399873 0.36700001
0.059612986 -0.037297964 0.36600003
0.060250558 -0.037297964 0.36600003
0.06088813 -0.037297964 0.36600003
0.061525702 -0.037297964 0.36600003
0.062163275 -0.037297964 0.36600003
0.064075992 -0.037297964 0.36600003
0.06471356 -0.037297964 0.36600003
0.039904866 -0.038563527 0.38500002
0.040575538 -0.038563527 0.38500002
0.041246209 -0.038563527 0.38500002
0.041808002 -0.038463362 0.384
0.042366315 -0.038363196 0.38300002
0.043033499 -0.038363196 0.38300002
0.043586586 -0.038263034 0.38200003
0.044252031 -0.038263034 0.38200003
0.044917472 -0.038263034 0.38200003
0.045463588 -0.038162868 0.38100001
0.046006221 -0.038062703 0.38000003
0.046668183 -0.038062703 0.38000003
0.04720559 -0.037962537 0.37900001
0.047865808 -0.037962537 0.37900001
0.048526026 -0.037962537 0.37900001
0.049056467 -0.037862372 0.37800002
0.04958342 -0.037762206 0.377
0.050240155 -0.037762206 0.377
0.050896887 -0.037762206 0.377
0.051416874 -0.037662044 0.37600002
0.052071866 -0.037662044 0.37600002
0.053605698 -0.037361547 0.37300003
0.054255463 -0.037361547 0.37300003
0.054905232 -0.037361547 0.37300003
0.058975413 -0.036660392 0.36600003
0.059612986 -0.036660392 0.36600003
0.060250558 -0.036660392 0.36600003
0.06088813 -0.036660392 0.36600003
0.06471356 -0.036660392 0.36600003
0.065351136 -0.036660392 0.36600003
0.039904866 -0.037892856 0.38500002
0.040575538 -0.037892856 0.38500002
0.041246209 -0.037892856 0.38500002
0.041808002 -0.037794434 0.384
0.04247693 -0.037794434 0.384
0.043033499 -0.037696011 0.38300002
0.043700684 -0.037696011 0.38300002
0.044252031 -0.037597589 0.38200003
0.044917472 -0.037597589 0.38200003
0.045463588 -0.037499167 0.38100001
0.046127293 -0.037499167 0.38100001
0.046668183 -0.037400741 0.38000003
0.047330145 -0.037400741 0.38000003
0.047992103 -0.037400741 0.38000003
0.048526026 -0.037302319 0.37900001
0.049056467 -0.037203897 0.37800002
0.04958342 -0.037105475 0.377
0.050240155 -0.037105475 0.377
0.050896887 -0.037105475 0.377
0.051553622 -0.037105475 0.377
0.052071866 -0.037007049 0.37600002
0.039336104 -0.037318867 0.38600001
0.040008515 -0.037318867 0.38600001
0.040575538 -0.037222188 0.38500002
0.041246209 -0.037222188 0.38500002
0.041916877 -0.037222188 0.38500002
0.04247693 -0.037125506 0.384
0.043033499 -0.037028827 0.38300002
0.043700684 -0.037028827 0.38300002
0.044367872 -0.037028827 0.38300002
0.044917472 -0.036932144 0.38200003
0.045582917 -0.036932144 0.38200003
0.046127293 -0.036835462 0.38100001
0.046790995 -0.036835462 0.38100001
0.047330145 -0.036738783 0.38000003
0.047992103 -0.036738783 0.38000003
0.048526026 -0.036642101 0.37900001
0.049186245 -0.036642101 0.37900001
0.049714942 -0.036545422 0.37800002
0.050240155 -0.036448739 0.377
0.050896887 -0.036448739 0.377
0.051553622 -0.036448739 0.377
0.039336104 -0.036646456 0.38600001
0.040008515 -0.036646456 0.38600001
0.04068093 -0.036646456 0.38600001
0.041246209 -0.036551517 0.38500002
0.041916877 -0.036551517 0.38500002
0.042587548 -0.036551517 0.38500002
0.043145858 -0.036456577 0.384
0.043700684 -0.036361638 0.38300002
0.044367872 -0.036361638 0.38300002
0.044917472 -0.036266699 0.38200003
0.045582917 -0.036266699 0.38200003
0.046127293 -0.03617176 0.38100001
0.046790995 -0.03617176 0.38100001
0.047454696 -0.03617176 0.38100001
0.048118398 -0.03617176 0.38100001
0.048654065 -0.036076821 0.38000003
0.049186245 -0.035981882 0.37900001
0.049714942 -0.035886943 0.37800002
0.050373416 -0.035886943 0.37800002
0.050896887 -0.035792004 0.377
0.039438013 -0.03606724 0.38700002
0.040112164 -0.03606724 0.38700002
0.04068093 -0.035974044 0.38600001
0.041353341 -0.035974044 0.38600001
0.042025752 -0.035974044 0.38600001
0.042698164 -0.035974044 0.38600001
0.043258216 -0.035880849 0.38500002
0.043700684 -0.035694454 0.38300002
0.044367872 -0.035694454 0.38300002
0.044917472 -0.035601255 0.38200003
0.045582917 -0.035601255 0.38200003
0.046127293 -0.035508059 0.38100001
0.046790995 -0.035508059 0.38100001
0.047454696 -0.035508059 0.38100001
0.048118398 -0.035508059 0.38100001
0.048654065 -0.035414863 0.38000003
0.049316023 -0.035414863 0.38000003
0.049846463 -0.035321664 0.37900001
0.050373416 -0.035228468 0.37800002
0.051031895 -0.035228468 0.37800002
0.039438013 -0.035393089 0.38700002
0.040112164 -0.035393089 0.38700002
0.040786318 -0.035393089 0.38700002
0.041353341 -0.035301633 0.38600001
0.042025752 -0.035301633 0.38600001
0.042698164 -0.035301633 0.38600001
0.043370578 -0.035301633 0.38600001
0.04404299 -0.035301633 0.38600001
0.044367872 -0.035027266 0.38300002
0.045035057 -0.035027266 0.38300002
0.045582917 -0.034935813 0.38200003
0.046248361 -0.034935813 0.38200003
0.046913806 -0.034935813 0.38200003
0.047454696 -0.034844358 0.38100001
0.048118398 -0.034844358 0.38100001
0.048654065 -0.034752902 0.38000003
0.049846463 -0.034661446 0.37900001
0.050373416 -0.034569994 0.37800002
0.040786318 -0.034718934 0.38700002
0.041460473 -0.034718934 0.38700002
0.042134628 -0.034718934 0.38700002
0.042698164 -0.034629222 0.38600001
0.043370578 -0.034629222 0.38600001
0.043928888 -0.034539506 0.38500002
0.044599559 -0.034539506 0.38500002
0.045035057 -0.034360081 0.38300002
0.045702245 -0.034360081 0.38300002
0.046248361 -0.034270369 0.38200003
0.046913806 -0.034270369 0.38200003
0.047579248 -0.034270369 0.38200003
0.048244692 -0.034270369 0.38200003
0.040786318 -0.03404478 0.38700002
0.041460473 -0.03404478 0.38700002
0.042134628 -0.03404478 0.38700002
0.042808782 -0.03404478 0.38700002
0.043482937 -0.03404478 0.38700002
0.04404299 -0.033956807 0.38600001
0.044715401 -0.033956807 0.38600001
0.045035057 -0.033692896 0.38300002
0.045702245 -0.033692896 0.38300002
0.04636943 -0.033692896 0.38300002
0.047036614 -0.033692896 0.38300002
0.047579248 -0.033604924 0.38200003
0.048244692 -0.033604924 0.38200003
0.040891711 -0.033456855 0.38800001
0.041567605 -0.033456855 0.38800001
0.042243503 -0.033456855 0.38800001
0.042919397 -0.033456855 0.38800001
0.043482937 -0.033370625 0.38700002
0.044157092 -0.033370625 0.38700002
0.044715401 -0.033284396 0.38600001
0.045270227 -0.033198167 0.38500002
0.045940898 -0.033198167 0.38500002
0.046490498 -0.033111937 0.384
0.047159426 -0.033111937 0.384
0.047828354 -0.033111937 0.384
0.048370987 -0.033025708 0.38300002
0.061065815 -0.035353892 0.41000003
0.040891711 -0.032780956 0.38800001
0.041567605 -0.032780956 0.38800001
0.042243503 -0.032780956 0.38800001
0.042919397 -0.032780956 0.38800001
0.043482937 -0.032696471 0.38700002
0.044157092 -0.032696471 0.38700002
0.044715401 -0.032611985 0.38600001
0.045387812 -0.032611985 0.38600001
0.046060223 -0.032611985 0.38600001
0.046611566 -0.032527495 0.38500002
0.047282238 -0.032527495 0.38500002
0.060351595 -0.034639671 0.41000003
0.061065815 -0.034639671 0.41000003
0.061780035 -0.034639671 0.41000003
0.040423114 -0.032270551 0.39000002
0.041102491 -0.032270551 0.39000002
0.041781873 -0.032270551 0.39000002
0.042352378 -0.032187808 0.38900003
0.042919397 -0.032105062 0.38800001
0.043595295 -0.032105062 0.38800001
0.044157092 -0.032022316 0.38700002
0.044831242 -0.032022316 0.38700002
0.045505397 -0.032022316 0.38700002
0.046179552 -0.032022316 0.38700002
0.046853706 -0.032022316 0.38700002
0.060498793 -0.034008197 0.41100001
0.061065815 -0.033925451 0.41000003
0.061780035 -0.033925451 0.41000003
0.062494256 -0.033925451 0.41000003
0.063208476 -0.033925451 0.41000003
0.040526763 -0.031672176 0.39100003
0.041207884 -0.031672176 0.39100003
0.041781873 -0.031591173 0.39000002
0.042461254 -0.031591173 0.39000002
0.042919397 -0.031429164 0.38800001
0.043595295 -0.031429164 0.38800001
0.044157092 -0.031348161 0.38700002
0.044831242 -0.031348161 0.38700002
0.045505397 -0.031348161 0.38700002
0.046179552 -0.031348161 0.38700002
0.046853706 -0.031348161 0.38700002
0.059782829 -0.033292234 0.41100001
0.060498793 -0.033292234 0.41100001
0.061214756 -0.033292234 0.41100001
0.061930716 -0.033292234 0.41100001
0.06264668 -0.033292234 0.41100001
0.063670978 -0.033454239 0.41300002
0.039264683 -0.031070314 0.39200002
0.039845638 -0.030991053 0.39100003
0.040526763 -0.030991053 0.39100003
0.041207884 -0.030991053 0.39100003
0.041889004 -0.030991053 0.39100003
0.042461254 -0.030911792 0.39000002
0.043140631 -0.030911792 0.39000002
0.043595295 -0.03075327 0.38800001
0.04427119 -0.03075327 0.38800001
0.044831242 -0.030674009 0.38700002
0.045505397 -0.030674009 0.38700002
0.046179552 -0.030674009 0.38700002
0.046732638 -0.030594748 0.38600001
0.047282238 -0.030515486 0.38500002
0.047952909 -0.030515486 0.38500002
0.05849288 -0.032655533 0.41200003
0.059210584 -0.032655533 0.41200003
0.059782829 -0.032576274 0.41100001
0.060498793 -0.032576274 0.41100001
0.061214756 -0.032576274 0.41100001
0.061930716 -0.032576274 0.41100001
0.062799104 -0.032655533 0.41200003
0.063670978 -0.032734796 0.41300002
0.039264683 -0.03038745 0.39200002
0.039845638 -0.03030993 0.39100003
0.040526763 -0.03030993 0.39100003
0.041207884 -0.03030993 0.39100003
0.041889004 -0.03030993 0.39100003
0.042461254 -0.030232413 0.39000002
0.043140631 -0.030232413 0.39000002
0.043820012 -0.030232413 0.39000002
0.04427119 -0.030077374 0.38800001
0.044947088 -0.030077374 0.38800001
0.045505397 -0.029999854 0.38700002
0.04629888 -0.030077374 0.38800001
0.046853706 -0.029999854 0.38700002
0.047405049 -0.029922336 0.38600001
0.05849288 -0.03193783 0.41200003
0.059210584 -0.03193783 0.41200003
0.059782829 -0.031860311 0.41100001
0.060498793 -0.031860311 0.41100001
0.061214756 -0.031860311 0.41100001
0.061930716 -0.031860311 0.41100001
0.063103952 -0.032092869 0.41400003
0.063670978 -0.03201535 0.41300002
0.039947547 -0.029704586 0.39200002
0.040526763 -0.02962881 0.39100003
0.041207884 -0.02962881 0.39100003
0.041889004 -0.02962881 0.39100003
0.042570129 -0.02962881 0.39100003
0.043140631 -0.029553032 0.39000002
0.043820012 -0.029553032 0.39000002
0.044385292 -0.029477255 0.38900003
0.045062929 -0.029477255 0.38900003
0.045622982 -0.029401477 0.38800001
0.04629888 -0.029401477 0.38800001
0.046974774 -0.029401477 0.38800001
0.059210584 -0.031220125 0.41200003
0.059782829 -0.031144349 0.41100001
0.060498793 -0.031144349 0.41100001
0.061363697 -0.031220125 0.41200003
0.062232085 -0.031295903 0.41300002
0.063103952 -0.031371679 0.41400003
0.063670978 -0.031295903 0.41300002
0.064390421 -0.031295903 0.41300002
0.039947547 -0.029021721 0.39200002
0.040630411 -0.029021721 0.39200002
0.041207884 -0.028947687 0.39100003
0.041889004 -0.028947687 0.39100003
0.042461254 -0.028873652 0.39000002
0.043140631 -0.028873652 0.39000002
0.043820012 -0.028873652 0.39000002
0.044499394 -0.028873652 0.39000002
0.045178771 -0.028873652 0.39000002
0.045740567 -0.028799618 0.38900003
0.046418205 -0.028799618 0.38900003
0.046974774 -0.028725581 0.38800001
0.059637375 -0.030354353 0.41000003
0.060351595 -0.030354353 0.41000003
0.061661579 -0.030650493 0.41400003
0.062382765 -0.030650493 0.41400003
0.063103952 -0.030650493 0.41400003
0.063825145 -0.030650493 0.41400003
0.064546332 -0.030650493 0.41400003
0.065267518 -0.030650493 0.41400003
0.039947547 -0.028338857 0.39200002
0.040630411 -0.028338857 0.39200002
0.041313276 -0.028338857 0.39200002
0.04199614 -0.028338857 0.39200002
0.042679004 -0.028338857 0.39200002
0.043361865 -0.028338857 0.39200002
0.043932371 -0.028266564 0.39100003
0.044499394 -0.028194271 0.39000002
0.045178771 -0.028194271 0.39000002
0.045858152 -0.028194271 0.39000002
0.046537533 -0.028194271 0.39000002
0.047337983 -0.028266564 0.39100003
0.059201002 -0.029423254 0.40700001
0.059909996 -0.029423254 0.40700001
0.061661579 -0.029929304 0.41400003
0.062382765 -0.029929304 0.41400003
0.063103952 -0.029929304 0.41400003
0.063825145 -0.029929304 0.41400003
0.064546332 -0.029929304 0.41400003
0.065267518 -0.029929304 0.41400003
0.040630411 -0.027655995 0.39200002
0.041313276 -0.027655995 0.39200002
0.04199614 -0.027655995 0.39200002
0.042679004 -0.027655995 0.39200002
0.043361865 -0.027655995 0.39200002
0.044044729 -0.027655995 0.39200002
0.044613495 -0.027585443 0.39100003
0.045294616 -0.027585443 0.39100003
0.045975737 -0.027585443 0.39100003
0.046656858 -0.027585443 0.39100003
0.047459051 -0.027655995 0.39200002
0.057641041 -0.028643709 0.40600002
0.058492009 -0.028714258 0.40700001
0.059201002 -0.028714258 0.40700001
0.059909996 -0.028714258 0.40700001
0.061661579 -0.029208116 0.41400003
0.062382765 -0.029208116 0.41400003
0.063103952 -0.029208116 0.41400003
0.063825145 -0.029208116 0.41400003
0.064546332 -0.029208116 0.41400003
0.065267518 -0.029208116 0.41400003
0.065988705 -0.029208116 0.41400003
0.04073406 -0.027041938 0.39300001
0.041418664 -0.027041938 0.39300001
0.042103272 -0.027041938 0.39300001
0.042787876 -0.027041938 0.39300001
0.043361865 -0.02697313 0.39200002
0.044044729 -0.02697313 0.39200002
0.044727594 -0.02697313 0.39200002
0.045294616 -0.02690432 0.39100003
0.045975737 -0.02690432 0.39100003
0.046776187 -0.02697313 0.39200002
0.047459051 -0.02697313 0.39200002
0.05693379 -0.027936455 0.40600002
0.057783015 -0.028005265 0.40700001
0.058492009 -0.028005265 0.40700001
0.059201002 -0.028005265 0.40700001
0.060940389 -0.028486928 0.41400003
0.061661579 -0.028486928 0.41400003
0.062382765 -0.028486928 0.41400003
0.063103952 -0.028486928 0.41400003
0.063825145 -0.028486928 0.41400003
0.064546332 -0.028486928 0.41400003
0.065267518 -0.028486928 0.41400003
0.065988705 -0.028486928 0.41400003
0.040837709 -0.026424401 0.39400002
0.041524056 -0.026424401 0.39400002
0.042103272 -0.026357332 0.39300001
0.042787876 -0.026357332 0.39300001
0.043472484 -0.026357332 0.39300001
0.044157092 -0.026357332 0.39300001
0.044727594 -0.026290266 0.39200002
0.045410458 -0.026290266 0.39200002
0.046093322 -0.026290266 0.39200002
0.046776187 -0.026290266 0.39200002
0.047459051 -0.026290266 0.39200002
0.048141915 -0.026290266 0.39200002
0.048700225 -0.026223199 0.39100003
0.056226537 -0.027229203 0.40600002
0.05693379 -0.027229203 0.40600002
0.057783015 -0.027296271 0.40700001
0.058492009 -0.027296271 0.40700001
0.059637375 -0.027497472 0.41000003
0.060498793 -0.027564539 0.41100001
0.061661579 -0.02776574 0.41400003
0.062382765 -0.02776574 0.41400003
0.063103952 -0.02776574 0.41400003
0.063825145 -0.02776574 0.41400003
0.064702243 -0.027832806 0.41500002
0.065425172 -0.027832806 0.41500002
0.066148102 -0.027832806 0.41500002
0.039565176 -0.025803376 0.39500001
0.040253267 -0.025803376 0.39500001
0.040941358 -0.025803376 0.39500001
0.041524056 -0.025738051 0.39400002
0.042210404 -0.025738051 0.39400002
0.042896751 -0.025738051 0.39400002
0.043472484 -0.025672726 0.39300001
0.044157092 -0.025672726 0.39300001
0.044727594 -0.025607402 0.39200002
0.045410458 -0.025607402 0.39200002
0.046093322 -0.025607402 0.39200002
0.046776187 -0.025607402 0.39200002
0.047459051 -0.025607402 0.39200002
0.048141915 -0.025607402 0.39200002
0.048700225 -0.025542077 0.39100003
0.049255054 -0.025476752 0.39000002
0.055519287 -0.026521951 0.40600002
0.056226537 -0.026521951 0.40600002
0.05693379 -0.026521951 0.40600002
0.057783015 -0.026587276 0.40700001
0.058492009 -0.026587276 0.40700001
0.059637375 -0.026783252 0.41000003
0.06064599 -0.026913902 0.41200003
0.061363697 -0.026913902 0.41200003
0.062232085 -0.026979227 0.41300002
0.063103952 -0.027044551 0.41400003
0.063825145 -0.027044551 0.41400003
0.064702243 -0.027109876 0.41500002
0.065425172 -0.027109876 0.41500002
0.066148102 -0.027109876 0.41500002
0.037690785 -0.025242453 0.39700001
0.038382359 -0.025242453 0.39700001
0.039073933 -0.025242453 0.39700001
0.039665341 -0.02517887 0.39600003
0.040355176 -0.02517887 0.39600003
0.041045006 -0.02517887 0.39600003
0.041629449 -0.025115287 0.39500001
0.042317539 -0.025115287 0.39500001
0.042896751 -0.025051704 0.39400002
0.043583103 -0.025051704 0.39400002
0.044157092 -0.02498812 0.39300001
0.044841696 -0.02498812 0.39300001
0.045526303 -0.02498812 0.39300001
0.046210907 -0.02498812 0.39300001
0.046776187 -0.024924537 0.39200002
0.047459051 -0.024924537 0.39200002
0.048141915 -0.024924537 0.39200002
0.04882478 -0.024924537 0.39200002
0.054677028 -0.025751116 0.40500003
0.055382539 -0.025751116 0.40500003
0.056226537 -0.025814699 0.40600002
0.05693379 -0.025814699 0.40600002
0.057783015 -0.025878282 0.40700001
0.058635723 -0.025941866 0.40800002
0.059637375 -0.026069032 0.41000003
0.060498793 -0.026132615 0.41100001
0.061363697 -0.026196199 0.41200003
0.0620814 -0.026196199 0.41200003
0.062951528 -0.02625978 0.41300002
0.063979305 -0.026386946 0.41500002
0.064702243 -0.026386946 0.41500002
0.065425172 -0.026386946 0.41500002
0.066148102 -0.026386946 0.41500002
0.038382359 -0.024550879 0.39700001
0.039073933 -0.024550879 0.39700001
0.039765507 -0.024550879 0.39700001
0.040457081 -0.024550879 0.39700001
0.041045006 -0.024489038 0.39600003
0.041629449 -0.024427196 0.39500001
0.042317539 -0.024427196 0.39500001
0.042896751 -0.024365356 0.39400002
0.043583103 -0.024365356 0.39400002
0.04426945 -0.024365356 0.39400002
0.044841696 -0.024303515 0.39300001
0.045526303 -0.024303515 0.39300001
0.046210907 -0.024303515 0.39300001
0.046895515 -0.024303515 0.39300001
0.047459051 -0.024241673 0.39200002
0.048141915 -0.024241673 0.39200002
0.04882478 -0.024241673 0.39200002
0.050518002 -0.024736401 0.40000001
0.051214803 -0.024736401 0.40000001
0.054677028 -0.025045607 0.40500003
0.055382539 -0.025045607 0.40500003
0.056226537 -0.025107447 0.40600002
0.057074022 -0.025169289 0.40700001
0.057783015 -0.025169289 0.40700001
0.058779437 -0.02529297 0.40900001
0.059637375 -0.025354812 0.41000003
0.060498793 -0.025416652 0.41100001
0.061214756 -0.025416652 0.41100001
0.0620814 -0.025478493 0.41200003
0.062951528 -0.025540335 0.41300002
0.063979305 -0.025664017 0.41500002
0.064702243 -0.025664017 0.41500002
0.065425172 -0.025664017 0.41500002
0.067032166 -0.025725858 0.41600001
0.067756839 -0.025725858 0.41600001
0.039073933 -0.023859305 0.39700001
0.039765507 -0.023859305 0.39700001
0.040457081 -0.023859305 0.39700001
0.041045006 -0.023799205 0.39600003
0.041734837 -0.023799205 0.39600003
0.042317539 -0.023739107 0.39500001
0.043005627 -0.023739107 0.39500001
0.043583103 -0.023679007 0.39400002
0.04426945 -0.023679007 0.39400002
0.044841696 -0.023618909 0.39300001
0.045526303 -0.023618909 0.39300001
0.046210907 -0.023618909 0.39300001
0.046895515 -0.023618909 0.39300001
0.047580119 -0.023618909 0.39300001
0.048141915 -0.02355881 0.39200002
0.04969665 -0.023979502 0.39900002
0.050391708 -0.023979502 0.39900002
0.051214803 -0.024039602 0.40000001
0.053134486 -0.024279997 0.40400001
0.053838257 -0.024279997 0.40400001
0.054542024 -0.024279997 0.40400001
0.055382539 -0.024340097 0.40500003
0.056088049 -0.024340097 0.40500003
0.05693379 -0.024400195 0.40600002
0.057783015 -0.024460295 0.40700001
0.058923155 -0.024640592 0.41000003
0.059637375 -0.024640592 0.41000003
0.060498793 -0.02470069 0.41100001
0.061214756 -0.02470069 0.41100001
0.0620814 -0.02476079 0.41200003
0.062951528 -0.024820888 0.41300002
0.063825145 -0.024880987 0.41400003
0.064858146 -0.025001185 0.41600001
0.065582819 -0.025001185 0.41600001
0.066307493 -0.025001185 0.41600001
0.067032166 -0.025001185 0.41600001
0.039073933 -0.023167731 0.39700001
0.039765507 -0.023167731 0.39700001
0.040457081 -0.023167731 0.39700001
0.041148655 -0.023167731 0.39700001
0.041734837 -0.023109373 0.39600003
0.042424671 -0.023109373 0.39600003
0.043005627 -0.023051016 0.39500001
0.043693718 -0.023051016 0.39500001
0.04426945 -0.022992659 0.39400002
0.044955797 -0.022992659 0.39400002
0.045642145 -0.022992659 0.39400002
0.046328492 -0.022992659 0.39400002
0.04701484 -0.022992659 0.39400002
0.047701187 -0.022992659 0.39400002
0.048387539 -0.022992659 0.39400002
0.04969665 -0.023284445 0.39900002
0.050391708 -0.023284445 0.39900002
0.051214803 -0.023342801 0.40000001
0.051911604 -0.023342801 0.40000001
0.053134486 -0.02357623 0.40400001
0.053838257 -0.02357623 0.40400001
0.054542024 -0.02357623 0.40400001
0.055245791 -0.02357623 0.40400001
0.056088049 -0.023634586 0.40500003
0.05693379 -0.023692943 0.40600002
0.057783015 -0.0237513 0.40700001
0.058923155 -0.023926372 0.41000003
0.059637375 -0.023926372 0.41000003
0.060498793 -0.023984728 0.41100001
0.061363697 -0.024043085 0.41200003
0.0620814 -0.024043085 0.41200003
0.062951528 -0.024101442 0.41300002
0.063825145 -0.0241598 0.41400003
0.064702243 -0.024218157 0.41500002
0.065425172 -0.024218157 0.41500002
0.066307493 -0.024276514 0.41600001
0.067032166 -0.024276514 0.41600001
0.067756839 -0.024276514 0.41600001
0.039765507 -0.022476157 0.39700001
0.040457081 -0.022476157 0.39700001
0.041148655 -0.022476157 0.39700001
0.041840229 -0.022476157 0.39700001
0.042424671 -0.022419542 0.39600003
0.043114502 -0.022419542 0.39600003
0.043693718 -0.022362927 0.39500001
0.044381808 -0.022362927 0.39500001
0.044955797 -0.022306312 0.39400002
0.045642145 -0.022306312 0.39400002
0.046328492 -0.022306312 0.39400002
0.04701484 -0.022306312 0.39400002
0.047701187 -0.022306312 0.39400002
0.048387539 -0.022306312 0.39400002
0.04969665 -0.022589386 0.39900002
0.050391708 -0.022589386 0.39900002
0.051086765 -0.022589386 0.39900002
0.051781826 -0.022589386 0.39900002
0.053134486 -0.022872461 0.40400001
0.053838257 -0.022872461 0.40400001
0.054542024 -0.022872461 0.40400001
0.055382539 -0.022929076 0.40500003
0.056226537 -0.022985691 0.40600002
0.057074022 -0.023042306 0.40700001
0.05806696 -0.023155537 0.40900001
0.058923155 -0.023212152 0.41000003
0.059637375 -0.023212152 0.41000003
0.060498793 -0.023268767 0.41100001
0.061363697 -0.023325382 0.41200003
0.0620814 -0.023325382 0.41200003
0.062951528 -0.023381997 0.41300002
0.063825145 -0.023438612 0.41400003
0.064858146 -0.023551842 0.41600001
0.065582819 -0.023551842 0.41600001
0.066307493 -0.023551842 0.41600001
0.067032166 -0.023551842 0.41600001
0.067756839 -0.023551842 0.41600001
0.068646125 -0.023608457 0.41700003
0.069372542 -0.023608457 0.41700003
0.039270781 -0.021894328 0.39900002
0.039865673 -0.021839455 0.39800003
0.040457081 -0.021784583 0.39700001
0.041148655 -0.021784583 0.39700001
0.041840229 -0.021784583 0.39700001
0.042531803 -0.021784583 0.39700001
0.043114502 -0.02172971 0.39600003
0.043804336 -0.02172971 0.39600003
0.044381808 -0.021674836 0.39500001
0.045069899 -0.021674836 0.39500001
0.045642145 -0.021619963 0.39400002
0.046446078 -0.021674836 0.39500001
0.047134168 -0.021674836 0.39500001
0.047822259 -0.021674836 0.39500001
0.048510347 -0.021674836 0.39500001
0.04969665 -0.021894328 0.39900002
0.050391708 -0.021894328 0.39900002
0.051086765 -0.021894328 0.39900002
0.051781826 -0.021894328 0.39900002
0.053134486 -0.022168694 0.40400001
0.053838257 -0.022168694 0.40400001
0.054542024 -0.022168694 0.40400001
0.055382539 -0.022223566 0.40500003
0.056365028 -0.022333313 0.40700001
0.057214253 -0.022388186 0.40800002
0.05806696 -0.022443058 0.40900001
0.058923155 -0.022497931 0.41000003
0.059637375 -0.022497931 0.41000003
0.060498793 -0.022552805 0.41100001
0.061363697 -0.022607677 0.41200003
0.0620814 -0.022607677 0.41200003
0.062951528 -0.02266255 0.41300002
0.063825145 -0.022717424 0.41400003
0.064858146 -0.022827169 0.41600001
0.065582819 -0.022827169 0.41600001
0.066307493 -0.022827169 0.41600001
0.0671933 -0.022882042 0.41700003
0.067919716 -0.022882042 0.41700003
0.068646125 -0.022882042 0.41700003
0.069372542 -0.022882042 0.41700003
0.037185606 -0.021199271 0.39900002
0.037785724 -0.021146139 0.39800003
0.03857572 -0.021199271 0.39900002
0.039270781 -0.021199271 0.39900002
0.039965838 -0.021199271 0.39900002
0.04055899 -0.021146139 0.39800003
0.041252304 -0.021146139 0.39800003
0.041840229 -0.021093009 0.39700001
0.042531803 -0.021093009 0.39700001
0.043223377 -0.021093009 0.39700001
0.043804336 -0.021039877 0.39600003
0.044494167 -0.021039877 0.39600003
0.045069899 -0.020986747 0.39500001
0.045757987 -0.020986747 0.39500001
0.046446078 -0.020986747 0.39500001
0.047253493 -0.021039877 0.39600003
0.047943328 -0.021039877 0.39600003
0.048633158 -0.021039877 0.39600003
0.04969665 -0.021199271 0.39900002
0.050391708 -0.021199271 0.39900002
0.051086765 -0.021199271 0.39900002
0.051781826 -0.021199271 0.39900002
0.053266007 -0.021518057 0.40500003
0.053971518 -0.021518057 0.40500003
0.054677028 -0.021518057 0.40500003
0.055382539 -0.021518057 0.40500003
0.056226537 -0.021571187 0.40600002
0.057214253 -0.021677449 0.40800002
0.05806696 -0.021730579 0.40900001
0.058779437 -0.021730579 0.40900001
0.059637375 -0.021783711 0.41000003
0.060498793 -0.021836841 0.41100001
0.061363697 -0.021889973 0.41200003
0.0620814 -0.021889973 0.41200003
0.062951528 -0.021943104 0.41300002
0.063825145 -0.021996235 0.41400003
0.064702243 -0.022049366 0.41500002
0.065582819 -0.022102498 0.41600001
0.066307493 -0.022102498 0.41600001
0.0671933 -0.022155628 0.41700003
0.067919716 -0.022155628 0.41700003
0.068646125 -0.022155628 0.41700003
0.069372542 -0.022155628 0.41700003
0.037880663 -0.020504212 0.39900002
0.03857572 -0.020504212 0.39900002
0.039270781 -0.020504212 0.39900002
0.039965838 -0.020504212 0.39900002
0.040660895 -0.020504212 0.39900002
0.041355953 -0.020504212 0.39900002
0.041945621 -0.020452823 0.39800003
0.042531803 -0.020401435 0.39700001
0.043223377 -0.020401435 0.39700001
0.043914951 -0.020401435 0.39700001
0.044494167 -0.020350045 0.39600003
0.045183998 -0.020350045 0.39600003
0.045873832 -0.020350045 0.39600003
0.046563663 -0.020350045 0.39600003
0.047253493 -0.020350045 0.39600003
0.047943328 -0.020350045 0.39600003
0.04875597 -0.020401435 0.39700001
0.049572095 -0.020452823 0.39800003
0.050391708 -0.020504212 0.39900002
0.051086765 -0.020504212 0.39900002
0.052690279 -0.020863935 0.40600002
0.053266007 -0.020812547 0.40500003
0.053971518 -0.020812547 0.40500003
0.054677028 -0.020812547 0.40500003
0.055519287 -0.020863935 0.40600002
0.056226537 -0.020863935 0.40600002
0.057214253 -0.020966712 0.40800002
0.05806696 -0.021018103 0.40900001
0.058779437 -0.021018103 0.40900001
0.059637375 -0.021069491 0.41000003
0.060498793 -0.02112088 0.41100001
0.061363697 -0.02117227 0.41200003
0.0620814 -0.02117227 0.41200003
0.062951528 -0.021223659 0.41300002
0.063825145 -0.021275047 0.41400003
0.064702243 -0.021326436 0.41500002
0.065582819 -0.021377826 0.41600001
0.066307493 -0.021377826 0.41600001
0.067032166 -0.021377826 0.41600001
0.067919716 -0.021429215 0.41700003
0.068646125 -0.021429215 0.41700003
0.069372542 -0.021429215 0.41700003
0.039270781 -0.019809155 0.39900002
0.039965838 -0.019809155 0.39900002
0.040660895 -0.019809155 0.39900002
0.041355953 -0.019809155 0.39900002
0.04205101 -0.019809155 0.39900002
0.042638935 -0.019759508 0.39800003
0.043223377 -0.019709861 0.39700001
0.043914951 -0.019709861 0.39700001
0.044606525 -0.019709861 0.39700001
0.0452981 -0.019709861 0.39700001
0.045989674 -0.019709861 0.39700001
0.046681248 -0.019709861 0.39700001
0.047253493 -0.019660214 0.39600003
0.047943328 -0.019660214 0.39600003
0.04875597 -0.019709861 0.39700001
0.049572095 -0.019759508 0.39800003
0.050265413 -0.019759508 0.39800003
0.051854987 -0.020107036 0.40500003
0.052560497 -0.020107036 0.40500003
0.053134486 -0.02005739 0.40400001
0.053971518 -0.020107036 0.40500003
0.054677028 -0.020107036 0.40500003
0.055519287 -0.020156683 0.40600002
0.056365028 -0.02020633 0.40700001
0.057214253 -0.020255977 0.40800002
0.057924986 -0.020255977 0.40800002
0.058779437 -0.020305624 0.40900001
0.059637375 -0.020355271 0.41000003
0.060498793 -0.020404918 0.41100001
0.061214756 -0.020404918 0.41100001
0.0620814 -0.020454565 0.41200003
0.062951528 -0.020504212 0.41300002
0.063825145 -0.020553859 0.41400003
0.064702243 -0.020603506 0.41500002
0.065425172 -0.020603506 0.41500002
0.066307493 -0.020653153 0.41600001
0.067032166 -0.020653153 0.41600001
0.067919716 -0.0207028 0.41700003
0.068646125 -0.0207028 0.41700003
0.069372542 -0.0207028 0.41700003
0.070098959 -0.0207028 0.41700003
0.039369203 -0.019162001 0.40000001
0.040066004 -0.019162001 0.40000001
0.040762801 -0.019162001 0.40000001
0.041459601 -0.019162001 0.40000001
0.04205101 -0.019114096 0.39900002
0.042746071 -0.019114096 0.39900002
0.043332253 -0.01906619 0.39800003
0.043914951 -0.019018287 0.39700001
0.044606525 -0.019018287 0.39700001
0.0452981 -0.019018287 0.39700001
0.045989674 -0.019018287 0.39700001
0.046681248 -0.019018287 0.39700001
0.047372822 -0.019018287 0.39700001
0.048064396 -0.019018287 0.39700001
0.04875597 -0.019018287 0.39700001
0.049447544 -0.019018287 0.39700001
0.050265413 -0.01906619 0.39800003
0.051726952 -0.019353621 0.40400001
0.052430719 -0.019353621 0.40400001
0.053134486 -0.019353621 0.40400001
0.053971518 -0.019401526 0.40500003
0.054812033 -0.019449431 0.40600002
0.055519287 -0.019449431 0.40600002
0.056365028 -0.019497337 0.40700001
0.057214253 -0.01954524 0.40800002
0.057924986 -0.01954524 0.40800002
0.058779437 -0.019593146 0.40900001
0.059637375 -0.019641051 0.41000003
0.060498793 -0.019688956 0.41100001
0.061214756 -0.019688956 0.41100001
0.0620814 -0.019736862 0.41200003
0.062951528 -0.019784765 0.41300002
0.063825145 -0.019832671 0.41400003
0.064702243 -0.019880576 0.41500002
0.065425172 -0.019880576 0.41500002
0.066307493 -0.019928481 0.41600001
0.067032166 -0.019928481 0.41600001
0.067919716 -0.019976387 0.41700003
0.068646125 -0.019976387 0.41700003
0.069372542 -0.019976387 0.41700003
0.070098959 -0.019976387 0.41700003
0.038260419 -0.01860369 0.40300003
0.038865764 -0.018557528 0.40200001
0.039566047 -0.018557528 0.40200001
0.040266331 -0.018557528 0.40200001
0.04086471 -0.018511364 0.40100002
0.04156325 -0.018511364 0.40100002
0.042261794 -0.018511364 0.40100002
0.042853203 -0.0184652 0.40000001
0.043441128 -0.018419039 0.39900002
0.04402557 -0.018372875 0.39800003
0.044606525 -0.018326713 0.39700001
0.0452981 -0.018326713 0.39700001
