# .PCD v0.7 - Point Cloud Data file format
VERSION 0.7
FIELDS x y z
SIZE 4 4 4
TYPE F F F
COUNT 1 1 1
WIDTH 1335
HEIGHT 1
VIEWPOINT 0 0 0 1 0 0 0
POINTS 1335
DATA ascii
0.073023774 -0.050001498 0.41300002
0.073921777 -0.05012257 0.41400003
0.074642964 -0.05012257 0.41400003
0.07554619 -0.050243638 0.41500002
0.07626912 -0.050243638 0.41500002
0.07699205 -0.050243638 0.41500002
0.077902243 -0.050364707 0.41600001
0.078626916 -0.050364707 0.41600001
0.079542339 -0.050485775 0.41700003
0.080268756 -0.050485775 0.41700003
0.081189401 -0.050606847 0.41800001
0.081917554 -0.050606847 0.41800001
0.08284343 -0.050727915 0.41900003
0.083573326 -0.050727915 0.41900003
0.084504426 -0.050848983 0.42000002
0.085236065 -0.050848983 0.42000002
0.085967705 -0.050848983 0.42000002
0.086699344 -0.050848983 0.42000002
0.050044179 -0.051549267 0.43200001
0.050796725 -0.051549267 0.43200001
0.051549267 -0.051549267 0.43200001
0.052301813 -0.051549267 0.43200001
0.052810475 -0.05059465 0.42400002
0.053549085 -0.05059465 0.42400002
0.054287691 -0.05059465 0.42400002
0.054896519 -0.050475325 0.42300001
0.055501867 -0.050355997 0.42200002
0.05623699 -0.050355997 0.42200002
0.056702103 -0.050117344 0.42000002
0.061629351 -0.048804745 0.40900001
0.062341828 -0.048804745 0.40900001
0.063054308 -0.048804745 0.40900001
0.063766785 -0.048804745 0.40900001
0.064479262 -0.048804745 0.40900001
0.065191738 -0.048804745 0.40900001
0.065904222 -0.048804745 0.40900001
0.066616699 -0.048804745 0.40900001
0.067493796 -0.048924074 0.41000003
0.068208016 -0.048924074 0.41000003
0.069090337 -0.049043398 0.41100001
0.069976144 -0.049162727 0.41200003
0.070693851 -0.049162727 0.41200003
0.07141155 -0.049162727 0.41200003
0.072304331 -0.049282055 0.41300002
0.073023774 -0.049282055 0.41300002
0.073921777 -0.04940138 0.41400003
0.07482326 -0.049520709 0.41500002
0.07554619 -0.049520709 0.41500002
0.07626912 -0.049520709 0.41500002
0.077177569 -0.049640033 0.41600001
0.077902243 -0.049640033 0.41600001
0.078815922 -0.049759362 0.41700003
0.079542339 -0.049759362 0.41700003
0.080461241 -0.04987869 0.41800001
0.081189401 -0.04987869 0.41800001
0.082113527 -0.049998015 0.41900003
0.08284343 -0.049998015 0.41900003
0.083772786 -0.050117344 0.42000002
0.084504426 -0.050117344 0.42000002
0.085236065 -0.050117344 0.42000002
0.050044179 -0.050796725 0.43200001
0.050796725 -0.050796725 0.43200001
0.051549267 -0.050796725 0.43200001
0.052301813 -0.050796725 0.43200001
0.052931543 -0.05067914 0.43100002
0.052685924 -0.049738459 0.42300001
0.05342279 -0.049738459 0.42300001
0.054159656 -0.049738459 0.42300001
0.054896519 -0.049738459 0.42300001
0.055370346 -0.049503289 0.42100003
0.056103725 -0.049503289 0.42100003
0.056702103 -0.049385704 0.42000002
0.057296995 -0.049268119 0.41900003
0.058026895 -0.049268119 0.41900003
0.05861656 -0.049150534 0.41800001
0.061065815 -0.048209853 0.41000003
0.061629351 -0.048092268 0.40900001
0.062341828 -0.048092268 0.40900001
0.063054308 -0.048092268 0.40900001
0.063766785 -0.048092268 0.40900001
0.064479262 -0.048092268 0.40900001
0.065191738 -0.048092268 0.40900001
0.065904222 -0.048092268 0.40900001
0.066779576 -0.048209853 0.41000003
0.067493796 -0.048209853 0.41000003
0.068374373 -0.048327439 0.41100001
0.069090337 -0.048327439 0.41100001
0.069976144 -0.048445024 0.41200003
0.070693851 -0.048445024 0.41200003
0.07158488 -0.048562609 0.41300002
0.072304331 -0.048562609 0.41300002
0.073200583 -0.048680194 0.41400003
0.07410033 -0.048797779 0.41500002
0.07482326 -0.048797779 0.41500002
0.07554619 -0.048797779 0.41500002
0.076452903 -0.048915364 0.41600001
0.077177569 -0.048915364 0.41600001
0.077902243 -0.048915364 0.41600001
0.078815922 -0.049032949 0.41700003
0.079733089 -0.049150534 0.41800001
0.080461241 -0.049150534 0.41800001
0.081383631 -0.049268119 0.41900003
0.082113527 -0.049268119 0.41900003
0.08284343 -0.049268119 0.41900003
0.083772786 -0.049385704 0.42000002
0.050160021 -0.050160021 0.43300003
0.050796725 -0.050044179 0.43200001
0.051549267 -0.050044179 0.43200001
0.052301813 -0.050044179 0.43200001
0.052931543 -0.049928337 0.43100002
0.053682346 -0.049928337 0.43100002
0.053549085 -0.049117435 0.42400002
0.054159656 -0.049001593 0.42300001
0.054896519 -0.049001593 0.42300001
0.055370346 -0.048769906 0.42100003
0.056103725 -0.048769906 0.42100003
0.056702103 -0.048654065 0.42000002
0.057296995 -0.048538219 0.41900003
0.058026895 -0.048538219 0.41900003
0.058756791 -0.048538219 0.41900003
0.060498793 -0.047611475 0.41100001
0.061214756 -0.047611475 0.41100001
0.061780035 -0.047495633 0.41000003
0.062494256 -0.047495633 0.41000003
0.063208476 -0.047495633 0.41000003
0.063766785 -0.047379792 0.40900001
0.064479262 -0.047379792 0.40900001
0.065191738 -0.047379792 0.40900001
0.066065356 -0.047495633 0.41000003
0.066779576 -0.047495633 0.41000003
0.067658417 -0.047611475 0.41100001
0.068374373 -0.047611475 0.41100001
0.069258444 -0.04772732 0.41200003
0.069976144 -0.04772732 0.41200003
0.070865437 -0.047843162 0.41300002
0.07158488 -0.047843162 0.41300002
0.072479397 -0.047959004 0.41400003
0.073200583 -0.047959004 0.41400003
0.07410033 -0.048074849 0.41500002
0.07482326 -0.048074849 0.41500002
0.07554619 -0.048074849 0.41500002
0.076452903 -0.048190691 0.41600001
0.077177569 -0.048190691 0.41600001
0.077902243 -0.048190691 0.41600001
0.078815922 -0.048306532 0.41700003
0.079733089 -0.048422378 0.41800001
0.080653735 -0.048538219 0.41900003
0.081383631 -0.048538219 0.41900003
0.082113527 -0.048538219 0.41900003
0.08284343 -0.048538219 0.41900003
0.049519837 -0.049519837 0.43400002
0.050275866 -0.049519837 0.43400002
0.050796725 -0.049291637 0.43200001
0.051549267 -0.049291637 0.43200001
0.052301813 -0.049291637 0.43200001
0.053054355 -0.049291637 0.43200001
0.053433239 -0.048949331 0.42900002
0.053549085 -0.048378825 0.42400002
0.054287691 -0.048378825 0.42400002
0.054896519 -0.048264727 0.42300001
0.055370346 -0.048036523 0.42100003
0.056103725 -0.048036523 0.42100003
0.056702103 -0.047922421 0.42000002
0.057296995 -0.047808323 0.41900003
0.058026895 -0.047808323 0.41900003
0.058756791 -0.047808323 0.41900003
0.060498793 -0.046895515 0.41100001
0.061214756 -0.046895515 0.41100001
0.061780035 -0.046781413 0.41000003
0.062494256 -0.046781413 0.41000003
0.063208476 -0.046781413 0.41000003
0.063922696 -0.046781413 0.41000003
0.064636916 -0.046781413 0.41000003
0.065351136 -0.046781413 0.41000003
0.066065356 -0.046781413 0.41000003
0.066942453 -0.046895515 0.41100001
0.067658417 -0.046895515 0.41100001
0.068374373 -0.046895515 0.41100001
0.069258444 -0.047009613 0.41200003
0.070145987 -0.047123715 0.41300002
0.070865437 -0.047123715 0.41300002
0.071758211 -0.047237817 0.41400003
0.072479397 -0.047237817 0.41400003
0.073200583 -0.047237817 0.41400003
0.07410033 -0.047351919 0.41500002
0.07482326 -0.047351919 0.41500002
0.07572823 -0.047466017 0.41600001
0.076452903 -0.047466017 0.41600001
0.077177569 -0.047466017 0.41600001
0.077902243 -0.047466017 0.41600001
0.079004928 -0.047694221 0.41800001
0.079733089 -0.047694221 0.41800001
0.080461241 -0.047694221 0.41800001
0.081189401 -0.047694221 0.41800001
0.049519837 -0.048763808 0.43400002
0.050275866 -0.048763808 0.43400002
0.051031895 -0.048763808 0.43400002
0.051668596 -0.048651449 0.43300003
0.052301813 -0.048539091 0.43200001
0.052808732 -0.048314374 0.43000001
0.053433239 -0.048202015 0.42900002
0.05367538 -0.047752578 0.42500001
0.054415729 -0.047752578 0.42500001
0.055156078 -0.047752578 0.42500001
0.055896427 -0.047752578 0.42500001
0.056103725 -0.04730314 0.42100003
0.056702103 -0.047190782 0.42000002
0.057296995 -0.047078423 0.41900003
0.058026895 -0.047078423 0.41900003
0.05861656 -0.046966065 0.41800001
0.060498793 -0.046179552 0.41100001
0.061214756 -0.046179552 0.41100001
0.061780035 -0.046067193 0.41000003
0.062494256 -0.046067193 0.41000003
0.063208476 -0.046067193 0.41000003
0.063922696 -0.046067193 0.41000003
0.064636916 -0.046067193 0.41000003
0.065351136 -0.046067193 0.41000003
0.066065356 -0.046067193 0.41000003
0.066942453 -0.046179552 0.41100001
0.067658417 -0.046179552 0.41100001
0.068540737 -0.04629191 0.41200003
0.069258444 -0.04629191 0.41200003
0.070145987 -0.046404269 0.41300002
0.070865437 -0.046404269 0.41300002
0.071758211 -0.046516627 0.41400003
0.072654471 -0.046628989 0.41500002
0.073377401 -0.046628989 0.41500002
0.07410033 -0.046628989 0.41500002
0.075003557 -0.046741348 0.41600001
0.081189401 -0.050112117 0.44600001
0.081966333 -0.050112117 0.44600001
0.082743265 -0.050112117 0.44600001
0.083520196 -0.050112117 0.44600001
0.084297128 -0.050112117 0.44600001
0.08507406 -0.050112117 0.44600001
0.085850991 -0.050112117 0.44600001
0.049519837 -0.048007783 0.43400002
0.050275866 -0.048007783 0.43400002
0.051031895 -0.048007783 0.43400002
0.051668596 -0.047897164 0.43300003
0.052301813 -0.047786549 0.43200001
0.053054355 -0.047786549 0.43200001
0.053557795 -0.047565311 0.43000001
0.05367538 -0.047012229 0.42500001
0.054415729 -0.047012229 0.42500001
0.055156078 -0.047012229 0.42500001
0.055896427 -0.047012229 0.42500001
0.056636777 -0.047012229 0.42500001
0.05737713 -0.047012229 0.42500001
0.057433743 -0.046459142 0.42000002
0.058026895 -0.046348527 0.41900003
0.058476329 -0.046127293 0.41700003
0.060793191 -0.045684826 0.41300002
0.061363697 -0.045574207 0.41200003
0.061930716 -0.045463588 0.41100001
0.06264668 -0.045463588 0.41100001
0.063362643 -0.045463588 0.41100001
0.064078607 -0.045463588 0.41100001
0.064636916 -0.045352973 0.41000003
0.065351136 -0.045352973 0.41000003
0.06622649 -0.045463588 0.41100001
0.066942453 -0.045463588 0.41100001
0.067658417 -0.045463588 0.41100001
0.068540737 -0.045574207 0.41200003
0.069426544 -0.045684826 0.41300002
0.070145987 -0.045684826 0.41300002
0.070865437 -0.045684826 0.41300002
0.071931541 -0.045906059 0.41500002
0.072654471 -0.045906059 0.41500002
0.073377401 -0.045906059 0.41500002
0.079456978 -0.049224567 0.44500002
0.080232173 -0.049224567 0.44500002
0.081189401 -0.049335185 0.44600001
0.081966333 -0.049335185 0.44600001
0.082743265 -0.049335185 0.44600001
0.083520196 -0.049335185 0.44600001
0.084297128 -0.049335185 0.44600001
0.08507406 -0.049335185 0.44600001
0.049519837 -0.047251754 0.43400002
0.050275866 -0.047251754 0.43400002
0.051031895 -0.047251754 0.43400002
0.051668596 -0.047142878 0.43300003
0.052301813 -0.047034003 0.43200001
0.052931543 -0.046925128 0.43100002
0.053557795 -0.046816252 0.43000001
0.054306854 -0.046816252 0.43000001
0.054415729 -0.046271879 0.42500001
0.055285856 -0.046380755 0.42600003
0.055896427 -0.046271879 0.42500001
0.056636777 -0.046271879 0.42500001
0.05737713 -0.046271879 0.42500001
0.057980731 -0.046163004 0.42400002
0.060793191 -0.044965379 0.41300002
0.061363697 -0.044856504 0.41200003
0.0620814 -0.044856504 0.41200003
0.06264668 -0.044747628 0.41100001
0.063362643 -0.044747628 0.41100001
0.064078607 -0.044747628 0.41100001
0.064794563 -0.044747628 0.41100001
0.065510526 -0.044747628 0.41100001
0.06622649 -0.044747628 0.41100001
0.066942453 -0.044747628 0.41100001
0.067658417 -0.044747628 0.41100001
0.068540737 -0.044856504 0.41200003
0.069426544 -0.044965379 0.41300002
0.070145987 -0.044965379 0.41300002
0.070865437 -0.044965379 0.41300002
0.071931541 -0.04518313 0.41500002
0.072654471 -0.04518313 0.41500002
0.073377401 -0.04518313 0.41500002
0.079456978 -0.048449378 0.44500002
0.080232173 -0.048449378 0.44500002
0.081189401 -0.048558254 0.44600001
0.081966333 -0.048558254 0.44600001
0.082743265 -0.048558254 0.44600001
0.083520196 -0.048558254 0.44600001
0.084108122 -0.048449378 0.44500002
0.08507406 -0.048558254 0.44600001
0.049519837 -0.046495724 0.43400002
0.050275866 -0.046495724 0.43400002
0.051031895 -0.046495724 0.43400002
0.051668596 -0.046388593 0.43300003
0.052301813 -0.046281461 0.43200001
0.052931543 -0.046174325 0.43100002
0.053557795 -0.046067193 0.43000001
0.054180559 -0.045960061 0.42900002
0.054927878 -0.045960061 0.42900002
0.055545416 -0.045852926 0.42800003
0.056027949 -0.045638662 0.42600003
0.056636777 -0.045531526 0.42500001
0.05737713 -0.045531526 0.42500001
0.058117479 -0.045531526 0.42500001
0.058719341 -0.045424394 0.42400002
0.061512638 -0.044245932 0.41300002
0.062232085 -0.044245932 0.41300002
0.062951528 -0.044245932 0.41300002
0.063362643 -0.044031665 0.41100001
0.064078607 -0.044031665 0.41100001
0.064794563 -0.044031665 0.41100001
0.065510526 -0.044031665 0.41100001
0.06622649 -0.044031665 0.41100001
0.066942453 -0.044031665 0.41100001
0.067658417 -0.044031665 0.41100001
0.068374373 -0.044031665 0.41100001
0.069426544 -0.044245932 0.41300002
0.070145987 -0.044245932 0.41300002
0.070865437 -0.044245932 0.41300002
0.07158488 -0.044245932 0.41300002
0.077381387 -0.047352787 0.44200003
0.07850498 -0.047567055 0.44400004
0.079278424 -0.047567055 0.44400004
0.080232173 -0.047674187 0.44500002
0.081189401 -0.047781322 0.44600001
0.081966333 -0.047781322 0.44600001
0.082743265 -0.047781322 0.44600001
0.083520196 -0.047781322 0.44600001
0.084297128 -0.047781322 0.44600001
0.08507406 -0.047781322 0.44600001
0.050391708 -0.045845088 0.43500003
0.051031895 -0.045739695 0.43400002
0.051668596 -0.045634307 0.43300003
0.052301813 -0.045528915 0.43200001
0.052931543 -0.045423523 0.43100002
0.053557795 -0.045318134 0.43000001
0.054180559 -0.045212742 0.42900002
0.054927878 -0.045212742 0.42900002
0.055675194 -0.045212742 0.42900002
0.05615947 -0.045001961 0.42700002
0.056770042 -0.044896569 0.42600003
0.05737713 -0.044791177 0.42500001
0.058117479 -0.044791177 0.42500001
0.063103952 -0.043631878 0.41400003
0.063670978 -0.043526486 0.41300002
0.064390421 -0.043526486 0.41300002
0.064794563 -0.043315705 0.41100001
0.065669917 -0.043421093 0.41200003
0.06622649 -0.043315705 0.41100001
0.066942453 -0.043315705 0.41100001
0.072432362 -0.046372041 0.44000003
0.073198847 -0.046372041 0.44000003
0.074133426 -0.046477433 0.44100001
0.074901648 -0.046477433 0.44100001
0.07566987 -0.046477433 0.44100001
0.076438092 -0.046477433 0.44100001
0.077381387 -0.046582825 0.44200003
0.078328162 -0.046688218 0.44300002
0.079278424 -0.046793606 0.44400004
0.080232173 -0.046898998 0.44500002
0.081007361 -0.046898998 0.44500002
0.081966333 -0.047004391 0.44600001
0.082557738 -0.046898998 0.44500002
0.083520196 -0.047004391 0.44600001
0.084108122 -0.046898998 0.44500002
0.08507406 -0.047004391 0.44600001
0.050391708 -0.045087319 0.43500003
0.051031895 -0.04498367 0.43400002
0.051668596 -0.044880021 0.43300003
0.052180741 -0.04467272 0.43100002
0.052931543 -0.04467272 0.43100002
0.053557795 -0.044569071 0.43000001
0.054180559 -0.044465423 0.42900002
0.054927878 -0.044465423 0.42900002
0.055675194 -0.044465423 0.42900002
0.056422513 -0.044465423 0.42900002
0.056770042 -0.044154476 0.42600003
0.05737713 -0.044050828 0.42500001
0.058117479 -0.044050828 0.42500001
0.063103952 -0.042910688 0.41400003
0.063670978 -0.042807039 0.41300002
0.064390421 -0.042807039 0.41300002
0.065109864 -0.042807039 0.41300002
0.065829314 -0.042807039 0.41300002
0.066387624 -0.04270339 0.41200003
0.067593962 -0.043014336 0.41500002
0.072432362 -0.045605563 0.44000003
0.073198847 -0.045605563 0.44000003
0.074133426 -0.045709211 0.44100001
0.074901648 -0.045709211 0.44100001
0.07566987 -0.045709211 0.44100001
0.076438092 -0.045709211 0.44100001
0.077206314 -0.045709211 0.44100001
0.07850498 -0.046020158 0.44400004
0.079278424 -0.046020158 0.44400004
0.080232173 -0.046123806 0.44500002
0.081007361 -0.046123806 0.44500002
0.081966333 -0.046227455 0.44600001
0.082557738 -0.046123806 0.44500002
0.051429939 -0.043921921 0.43100002
0.052180741 -0.043921921 0.43100002
0.052931543 -0.043921921 0.43100002
0.053557795 -0.043820012 0.43000001
0.054306854 -0.043820012 0.43000001
0.055055913 -0.043820012 0.43000001
0.055675194 -0.043718107 0.42900002
0.056422513 -0.043718107 0.42900002
0.057036567 -0.043616198 0.42800003
0.057512134 -0.043412384 0.42600003
0.058117479 -0.043310478 0.42500001
0.062951528 -0.042087592 0.41300002
0.063670978 -0.042087592 0.41300002
0.064390421 -0.042087592 0.41300002
0.065109864 -0.042087592 0.41300002
0.065829314 -0.042087592 0.41300002
0.066548757 -0.042087592 0.41300002
0.067268208 -0.042087592 0.41300002
0.072432362 -0.044839084 0.44000003
0.073198847 -0.044839084 0.44000003
0.074133426 -0.044940989 0.44100001
0.074901648 -0.044940989 0.44100001
0.07566987 -0.044940989 0.44100001
0.076611422 -0.045042899 0.44200003
0.077556461 -0.045144804 0.44300002
0.078328162 -0.045144804 0.44300002
0.079456978 -0.045348618 0.44500002
0.080232173 -0.045348618 0.44500002
0.081007361 -0.045348618 0.44500002
0.081966333 -0.045450523 0.44600001
0.082743265 -0.045450523 0.44600001
0.053028226 -0.043872274 0.43800002
0.052931543 -0.043171119 0.43100002
0.053682346 -0.043171119 0.43100002
0.054433148 -0.043171119 0.43100002
0.055055913 -0.043070953 0.43000001
0.055804975 -0.043070953 0.43000001
0.056422513 -0.042970788 0.42900002
0.057169832 -0.042970788 0.42900002
0.057647139 -0.042770457 0.42700002
0.062951528 -0.041368149 0.41300002
0.063825145 -0.041468311 0.41400003
0.064390421 -0.041368149 0.41300002
0.065109864 -0.041368149 0.41300002
0.065829314 -0.041368149 0.41300002
0.066548757 -0.041368149 0.41300002
0.067268208 -0.041368149 0.41300002
0.072596982 -0.044172768 0.44100001
0.073365204 -0.044172768 0.44100001
0.074133426 -0.044172768 0.44100001
0.075071491 -0.044272933 0.44200003
0.075841457 -0.044272933 0.44200003
0.076611422 -0.044272933 0.44200003
0.077381387 -0.044272933 0.44200003
0.07850498 -0.044473264 0.44400004
0.079456978 -0.044573426 0.44500002
0.080232173 -0.044573426 0.44500002
0.081007361 -0.044573426 0.44500002
0.08178255 -0.044573426 0.44500002
0.052265231 -0.043109275 0.43800002
0.053177167 -0.042617161 0.43300003
0.053682346 -0.042420316 0.43100002
0.054433148 -0.042420316 0.43100002
0.055055913 -0.042321894 0.43000001
0.055804975 -0.042321894 0.43000001
0.056554034 -0.042321894 0.43000001
0.063103952 -0.040747125 0.41400003
0.067833483 -0.043306123 0.44000003
0.068599962 -0.043306123 0.44000003
0.065109864 -0.040648703 0.41300002
0.065829314 -0.040648703 0.41300002
0.066548757 -0.040648703 0.41300002
0.07182876 -0.043404546 0.44100001
0.072596982 -0.043404546 0.44100001
0.073365204 -0.043404546 0.44100001
0.074301533 -0.043502968 0.44200003
0.075241342 -0.04360139 0.44300002
0.076013044 -0.04360139 0.44300002
0.076784752 -0.04360139 0.44300002
0.077731527 -0.043699816 0.44400004
0.07850498 -0.043699816 0.44400004
0.079456978 -0.043798238 0.44500002
0.080232173 -0.043798238 0.44500002
0.050739236 -0.04234628 0.43800002
0.051502232 -0.04234628 0.43800002
0.052265231 -0.04234628 0.43800002
0.052907158 -0.042249601 0.43700001
0.053177167 -0.041862875 0.43300003
0.053931452 -0.041862875 0.43300003
0.054559443 -0.041766193 0.43200001
0.055311989 -0.041766193 0.43200001
0.056064531 -0.041766193 0.43200001
0.067067005 -0.042539641 0.44000003
0.068141818 -0.042733006 0.44200003
0.068755873 -0.042636324 0.44100001
0.069524094 -0.042636324 0.44100001
0.070451714 -0.042733006 0.44200003
0.071221672 -0.042733006 0.44200003
0.071991637 -0.042733006 0.44200003
0.072761603 -0.042733006 0.44200003
0.073531568 -0.042733006 0.44200003
0.074805841 -0.043023046 0.44500002
0.075581029 -0.043023046 0.44500002
0.076356217 -0.043023046 0.44500002
0.050855082 -0.041678224 0.43900001
0.051502232 -0.041583285 0.43800002
0.052145902 -0.041488346 0.43700001
0.052907158 -0.041488346 0.43700001
0.05342279 -0.041298468 0.43500003
0.054180559 -0.041298468 0.43500003
0.054812033 -0.041203529 0.43400002
0.055568062 -0.041203529 0.43400002
0.056324091 -0.041203529 0.43400002
0.067219429 -0.041868102 0.44100001
0.068141818 -0.041963041 0.44200003
0.068755873 -0.041868102 0.44100001
0.069681749 -0.041963041 0.44200003
0.070451714 -0.041963041 0.44200003
0.071382813 -0.04205798 0.44300002
0.071991637 -0.041963041 0.44200003
0.072926223 -0.04205798 0.44300002
0.074363373 -0.042437736 0.44700003
0.074973941 -0.042342797 0.44600001
0.075750872 -0.042342797 0.44600001
0.076527804 -0.042342797 0.44600001
0.049437962 -0.041006684 0.44000003
0.050090343 -0.040913485 0.43900001
0.050855082 -0.040913485 0.43900001
0.051619817 -0.040913485 0.43900001
0.052265231 -0.040820289 0.43800002
0.052907158 -0.04072709 0.43700001
0.053545598 -0.040633895 0.43600002
0.054180559 -0.040540699 0.43500003
0.054938328 -0.040540699 0.43500003
0.0556961 -0.040540699 0.43500003
0.056324091 -0.0404475 0.43400002
0.064620368 -0.040913485 0.43900001
0.065385103 -0.040913485 0.43900001
0.066451207 -0.04109988 0.44100001
0.067371853 -0.041193075 0.44200003
0.068141818 -0.041193075 0.44200003
0.068911783 -0.041193075 0.44200003
0.069681749 -0.041193075 0.44200003
0.070611104 -0.041286275 0.44300002
0.071543947 -0.04137947 0.44400004
0.072317392 -0.04137947 0.44400004
0.073584698 -0.041659061 0.44700003
0.074363373 -0.041659061 0.44700003
0.075142048 -0.041659061 0.44700003
0.075920723 -0.041659061 0.44700003
0.076699391 -0.041659061 0.44700003
0.050090343 -0.040148746 0.43900001
0.050855082 -0.040148746 0.43900001
0.051619817 -0.040148746 0.43900001
0.052265231 -0.040057294 0.43800002
0.052907158 -0.039965838 0.43700001
0.053545598 -0.039874382 0.43600002
0.05430511 -0.039874382 0.43600002
0.054938328 -0.039782926 0.43500003
0.0556961 -0.039782926 0.43500003
0.056583647 -0.039874382 0.43600002
0.057343159 -0.039874382 0.43600002
0.058102671 -0.039874382 0.43600002
0.064767562 -0.040240202 0.44000003
0.065682985 -0.040331658 0.44100001
0.066451207 -0.040331658 0.44100001
0.067371853 -0.040423114 0.44200003
0.068141818 -0.040423114 0.44200003
0.068911783 -0.040423114 0.44200003
0.069681749 -0.040423114 0.44200003
0.071248673 -0.040880386 0.44700003
0.072027348 -0.040880386 0.44700003
0.072806023 -0.040880386 0.44700003
0.073584698 -0.040880386 0.44700003
0.07452973 -0.040971842 0.44800001
0.075142048 -0.040880386 0.44700003
0.076090567 -0.040971842 0.44800001
0.076870978 -0.040971842 0.44800001
0.049003333 -0.039742861 0.44300002
0.049662679 -0.039653149 0.44200003
0.050204445 -0.039473724 0.44000003
0.050855082 -0.039384011 0.43900001
0.051619817 -0.039384011 0.43900001
0.052384555 -0.039384011 0.43900001
0.052907158 -0.039204583 0.43700001
0.05366841 -0.039204583 0.43700001
0.05430511 -0.03911487 0.43600002
0.055064622 -0.03911487 0.43600002
0.055824134 -0.03911487 0.43600002
0.056583647 -0.03911487 0.43600002
0.057343159 -0.03911487 0.43600002
0.058102671 -0.03911487 0.43600002
0.058997188 -0.039204583 0.43700001
0.059758443 -0.039204583 0.43700001
0.063378319 -0.039563436 0.44100001
0.064291999 -0.039653149 0.44200003
0.065061964 -0.039653149 0.44200003
0.065831929 -0.039653149 0.44200003
0.066601887 -0.039653149 0.44200003
0.067524277 -0.039742861 0.44300002
0.068295985 -0.039742861 0.44300002
0.069067694 -0.039742861 0.44300002
0.070469998 -0.040101714 0.44700003
0.071248673 -0.040101714 0.44700003
0.072188482 -0.040191427 0.44800001
0.0729689 -0.040191427 0.44800001
0.073749319 -0.040191427 0.44800001
0.07452973 -0.040191427 0.44800001
0.075310148 -0.040191427 0.44800001
0.07626041 -0.040281139 0.44900003
0.050970923 -0.038707241 0.44000003
0.051619817 -0.038619272 0.43900001
0.052384555 -0.038619272 0.43900001
0.053028226 -0.0385313 0.43800002
0.053791221 -0.0385313 0.43800002
0.054429665 -0.038443331 0.43700001
0.055064622 -0.038355358 0.43600002
0.055824134 -0.038355358 0.43600002
0.056583647 -0.038355358 0.43600002
0.057343159 -0.038355358 0.43600002
0.058102671 -0.038355358 0.43600002
0.058862183 -0.038355358 0.43600002
0.059621695 -0.038355358 0.43600002
0.062610097 -0.038795214 0.44100001
0.063522033 -0.038883183 0.44200003
0.064437456 -0.038971156 0.44300002
0.065209158 -0.038971156 0.44300002
0.066129811 -0.039059125 0.44400004
0.066903256 -0.039059125 0.44400004
0.067829132 -0.039147098 0.44500002
0.068758488 -0.039235067 0.44600001
0.069847234 -0.039411012 0.44800001
0.070627652 -0.039411012 0.44800001
0.071408071 -0.039411012 0.44800001
0.072188482 -0.039411012 0.44800001
0.0729689 -0.039411012 0.44800001
0.073913939 -0.039498981 0.44900003
0.074696094 -0.039498981 0.44900003
0.075478248 -0.039498981 0.44900003
0.07626041 -0.039498981 0.44900003
0.077042565 -0.039498981 0.44900003
0.078781955 -0.039586954 0.45000002
0.079565853 -0.039586954 0.45000002
0.080349758 -0.039586954 0.45000002
0.050970923 -0.037940763 0.44000003
0.051737402 -0.037940763 0.44000003
0.052384555 -0.037854534 0.43900001
0.053149294 -0.037854534 0.43900001
0.053791221 -0.037768304 0.43800002
0.054429665 -0.037682075 0.43700001
0.055190917 -0.037682075 0.43700001
0.055952173 -0.037682075 0.43700001
0.056713428 -0.037682075 0.43700001
0.05747468 -0.037682075 0.43700001
0.058502462 -0.037854534 0.43900001
0.059402205 -0.037940763 0.44000003
0.060168684 -0.037940763 0.44000003
0.062752068 -0.038113222 0.44200003
0.063522033 -0.038113222 0.44200003
0.064437456 -0.038199451 0.44300002
0.065356359 -0.03828568 0.44400004
0.066278748 -0.038371906 0.44500002
0.067204624 -0.038458135 0.44600001
0.067981556 -0.038458135 0.44600001
0.068912655 -0.038544364 0.44700003
0.06969133 -0.038544364 0.44700003
0.070627652 -0.038630594 0.44800001
0.071408071 -0.038630594 0.44800001
0.072188482 -0.038630594 0.44800001
0.073131777 -0.038716823 0.44900003
0.073913939 -0.038716823 0.44900003
0.074696094 -0.038716823 0.44900003
0.075646356 -0.038803052 0.45000002
0.076600097 -0.038889281 0.45100003
0.077385738 -0.038889281 0.45100003
0.078171387 -0.038889281 0.45100003
0.078957029 -0.038889281 0.45100003
0.07974267 -0.038889281 0.45100003
0.080528311 -0.038889281 0.45100003
0.081313953 -0.038889281 0.45100003
0.050970923 -0.037174281 0.44000003
0.051737402 -0.037174281 0.44000003
0.052384555 -0.037089795 0.43900001
0.053149294 -0.037089795 0.43900001
0.053791221 -0.037005309 0.43800002
0.054429665 -0.036920823 0.43700001
0.055190917 -0.036920823 0.43700001
0.055952173 -0.036920823 0.43700001
0.056713428 -0.036920823 0.43700001
0.057737723 -0.037089795 0.43900001
0.058502462 -0.037089795 0.43900001
0.059402205 -0.037174281 0.44000003
0.060168684 -0.037174281 0.44000003
0.062262569 -0.037512232 0.44400004
0.063036017 -0.037512232 0.44400004
0.063809462 -0.037512232 0.44400004
0.064582914 -0.037512232 0.44400004
0.065356359 -0.037512232 0.44400004
0.066278748 -0.037596717 0.44500002
0.067204624 -0.037681203 0.44600001
0.06813398 -0.037765693 0.44700003
0.069066823 -0.037850179 0.44800001
0.069847234 -0.037850179 0.44800001
0.070627652 -0.037850179 0.44800001
0.071408071 -0.037850179 0.44800001
0.072349623 -0.037934665 0.44900003
0.073131777 -0.037934665 0.44900003
0.073913939 -0.037934665 0.44900003
0.074862458 -0.038019154 0.45000002
0.075814456 -0.03810364 0.45100003
0.076600097 -0.03810364 0.45100003
0.077385738 -0.03810364 0.45100003
0.078171387 -0.03810364 0.45100003
0.079132095 -0.038188126 0.45200002
0.07974267 -0.03810364 0.45100003
0.080528311 -0.03810364 0.45100003
0.050318543 -0.036490548 0.44100001
0.051086765 -0.036490548 0.44100001
0.051737402 -0.036407802 0.44000003
0.052503884 -0.036407802 0.44000003
0.053149294 -0.036325056 0.43900001
0.053914033 -0.036325056 0.43900001
0.054678772 -0.036325056 0.43900001
0.055317212 -0.036242314 0.43800002
0.056080211 -0.036242314 0.43800002
0.056972984 -0.036325056 0.43900001
0.057869244 -0.036407802 0.44000003
0.058635723 -0.036407802 0.44000003
0.059402205 -0.036407802 0.44000003
0.060168684 -0.036407802 0.44000003
0.061212141 -0.036573291 0.44200003
0.0624028 -0.036821526 0.44500002
0.063036017 -0.036738783 0.44400004
0.063809462 -0.036738783 0.44400004
0.064728372 -0.036821526 0.44500002
0.06550356 -0.036821526 0.44500002
0.066427693 -0.036904272 0.44600001
0.067355305 -0.036987018 0.44700003
0.06813398 -0.036987018 0.44700003
0.069066823 -0.037069764 0.44800001
0.069847234 -0.037069764 0.44800001
0.070627652 -0.037069764 0.44800001
0.071567461 -0.037152506 0.44900003
0.072349623 -0.037152506 0.44900003
0.073131777 -0.037152506 0.44900003
0.074078552 -0.037235253 0.45000002
0.075028814 -0.037317999 0.45100003
0.075814456 -0.037317999 0.45100003
0.076769948 -0.037400741 0.45200002
0.077557325 -0.037400741 0.45200002
0.078171387 -0.037317999 0.45100003
0.079132095 -0.037400741 0.45200002
0.07974267 -0.037317999 0.45100003
0.080528311 -0.037317999 0.45100003
0.050432645 -0.035803329 0.44200003
0.051086765 -0.035722326 0.44100001
0.051854987 -0.035722326 0.44100001
0.052503884 -0.035641324 0.44000003
0.053270362 -0.035641324 0.44000003
0.054036845 -0.035641324 0.44000003
0.054678772 -0.035560321 0.43900001
0.055443507 -0.035560321 0.43900001
0.056208245 -0.035560321 0.43900001
0.057102762 -0.035641324 0.44000003
0.057869244 -0.035641324 0.44000003
0.058768988 -0.035722326 0.44100001
0.05953721 -0.035722326 0.44100001
0.060442179 -0.035803329 0.44200003
0.061212141 -0.035803329 0.44200003
0.0624028 -0.036046337 0.44500002
0.063177988 -0.036046337 0.44500002
0.063953176 -0.036046337 0.44500002
0.064873829 -0.03612734 0.44600001
0.065650761 -0.03612734 0.44600001
0.06657663 -0.036208343 0.44700003
0.067355305 -0.036208343 0.44700003
0.068286404 -0.036289345 0.44800001
0.069066823 -0.036289345 0.44800001
0.069847234 -0.036289345 0.44800001
0.070785306 -0.036370348 0.44900003
0.071567461 -0.036370348 0.44900003
0.072349623 -0.036370348 0.44900003
0.073294654 -0.036451351 0.45000002
0.074243173 -0.036532354 0.45100003
0.075028814 -0.036532354 0.45100003
0.075982563 -0.03661336 0.45200002
0.076769948 -0.03661336 0.45200002
0.077557325 -0.03661336 0.45200002
0.07834471 -0.03661336 0.45200002
0.079132095 -0.03661336 0.45200002
0.07991948 -0.03661336 0.45200002
0.080706865 -0.03661336 0.45200002
0.050432645 -0.035033364 0.44200003
0.05120261 -0.035033364 0.44200003
0.051854987 -0.034954105 0.44100001
0.052623209 -0.034954105 0.44100001
0.053391431 -0.034954105 0.44100001
0.054036845 -0.034874842 0.44000003
0.054803323 -0.034874842 0.44000003
0.055569805 -0.034874842 0.44000003
0.056336284 -0.034874842 0.44000003
0.057102762 -0.034874842 0.44000003
0.058000766 -0.034954105 0.44100001
0.058768988 -0.034954105 0.44100001
0.059672214 -0.035033364 0.44200003
0.060578924 -0.035112627 0.44300002
0.06148912 -0.035191886 0.44400004
0.0624028 -0.035271145 0.44500002
0.063177988 -0.035271145 0.44500002
0.06409689 -0.035350408 0.44600001
0.064873829 -0.035350408 0.44600001
0.065797955 -0.035429668 0.44700003
0.06657663 -0.035429668 0.44700003
0.067505985 -0.035508931 0.44800001
0.068286404 -0.035508931 0.44800001
0.069066823 -0.035508931 0.44800001
0.069847234 -0.035508931 0.44800001
0.070785306 -0.03558819 0.44900003
0.071567461 -0.03558819 0.44900003
0.072510757 -0.035667453 0.45000002
0.073457532 -0.035746712 0.45100003
0.074243173 -0.035746712 0.45100003
0.075195178 -0.035825975 0.45200002
0.075982563 -0.035825975 0.45200002
0.076769948 -0.035825975 0.45200002
0.077557325 -0.035825975 0.45200002
0.07834471 -0.035825975 0.45200002
0.079132095 -0.035825975 0.45200002
0.07991948 -0.035825975 0.45200002
0.080706865 -0.035825975 0.45200002
0.049775042 -0.034340918 0.44300002
0.050546747 -0.034340918 0.44300002
0.05120261 -0.034263398 0.44200003
0.051972572 -0.034263398 0.44200003
0.052742537 -0.034263398 0.44200003
0.053391431 -0.034185883 0.44100001
0.054159656 -0.034185883 0.44100001
0.054927878 -0.034185883 0.44100001
0.055569805 -0.034108363 0.44000003
0.056336284 -0.034108363 0.44000003
0.057232544 -0.034185883 0.44100001
0.058132287 -0.034263398 0.44200003
0.058902249 -0.034263398 0.44200003
0.059807219 -0.034340918 0.44300002
0.060715672 -0.034418438 0.44400004
0.06148912 -0.034418438 0.44400004
0.0624028 -0.034495957 0.44500002
0.063319959 -0.034573477 0.44600001
0.064240612 -0.034650996 0.44700003
0.06501928 -0.034650996 0.44700003
0.065945156 -0.034728516 0.44800001
0.066725574 -0.034728516 0.44800001
0.067505985 -0.034728516 0.44800001
0.068438828 -0.034806032 0.44900003
0.06922099 -0.034806032 0.44900003
0.070003144 -0.034806032 0.44900003
0.070942953 -0.034883551 0.45000002
0.071726851 -0.034883551 0.45000002
0.07267189 -0.034961071 0.45100003
0.073457532 -0.034961071 0.45100003
0.074243173 -0.034961071 0.45100003
0.075195178 -0.03503859 0.45200002
0.075982563 -0.03503859 0.45200002
0.076769948 -0.03503859 0.45200002
0.077728912 -0.03511611 0.45300001
0.07851804 -0.03511611 0.45300001
0.079307169 -0.03511611 0.45300001
0.080096297 -0.03511611 0.45300001
0.080885418 -0.03511611 0.45300001
0.0498874 -0.033644989 0.44400004
0.050546747 -0.033569213 0.44300002
0.05120261 -0.033493437 0.44200003
0.051972572 -0.033493437 0.44200003
0.052742537 -0.033493437 0.44200003
0.053512502 -0.033493437 0.44200003
0.054159656 -0.033417661 0.44100001
0.054927878 -0.033417661 0.44100001
0.0556961 -0.033417661 0.44100001
0.056464322 -0.033417661 0.44100001
0.057232544 -0.033417661 0.44100001
0.058132287 -0.033493437 0.44200003
0.059035514 -0.033569213 0.44300002
0.059942223 -0.033644989 0.44400004
0.060715672 -0.033644989 0.44400004
0.061766099 -0.033796545 0.44600001
0.062543027 -0.033796545 0.44600001
0.063461937 -0.033872321 0.44700003
0.064384326 -0.033948097 0.44800001
0.065164737 -0.033948097 0.44800001
0.065945156 -0.033948097 0.44800001
0.066725574 -0.033948097 0.44800001
0.067505985 -0.033948097 0.44800001
0.068438828 -0.034023874 0.44900003
0.06922099 -0.034023874 0.44900003
0.070159055 -0.034099653 0.45000002
0.071100608 -0.034175429 0.45100003
0.071886249 -0.034175429 0.45100003
0.07267189 -0.034175429 0.45100003
0.073620409 -0.034251206 0.45200002
0.074407794 -0.034251206 0.45200002
0.075195178 -0.034251206 0.45200002
0.076150663 -0.034326982 0.45300001
0.076939791 -0.034326982 0.45300001
0.077728912 -0.034326982 0.45300001
0.078691371 -0.034402762 0.45400003
0.079307169 -0.034326982 0.45300001
0.080273107 -0.034402762 0.45400003
0.050660849 -0.032871541 0.44400004
0.051318452 -0.032797508 0.44300002
0.052090157 -0.032797508 0.44300002
0.052742537 -0.032723472 0.44200003
0.053512502 -0.032723472 0.44200003
0.054282464 -0.032723472 0.44200003
0.055052429 -0.032723472 0.44200003
0.0556961 -0.032649439 0.44100001
0.056592356 -0.032723472 0.44200003
0.0574921 -0.032797508 0.44300002
0.058395326 -0.032871541 0.44400004
0.059168775 -0.032871541 0.44400004
0.060077228 -0.032945577 0.44500002
0.060989168 -0.033019613 0.44600001
0.061904587 -0.033093646 0.44700003
0.062683262 -0.033093646 0.44700003
0.063461937 -0.033093646 0.44700003
0.064384326 -0.033167683 0.44800001
0.065164737 -0.033167683 0.44800001
0.065945156 -0.033167683 0.44800001
0.066725574 -0.033167683 0.44800001
0.067656673 -0.033241715 0.44900003
0.068438828 -0.033241715 0.44900003
0.069375157 -0.033315752 0.45000002
0.070314966 -0.033389788 0.45100003
0.071100608 -0.033389788 0.45100003
0.071886249 -0.033389788 0.45100003
0.072833024 -0.033463821 0.45200002
0.073620409 -0.033463821 0.45200002
0.074407794 -0.033463821 0.45200002
0.075361535 -0.033537857 0.45300001
0.076318763 -0.033611894 0.45400003
0.077109635 -0.033611894 0.45400003
0.077900507 -0.033611894 0.45400003
0.078691371 -0.033611894 0.45400003
0.079482242 -0.033611894 0.45400003
0.049999759 -0.032170389 0.44500002
0.050774947 -0.032170389 0.44500002
0.051434293 -0.032098092 0.44400004
0.052207742 -0.032098092 0.44400004
0.052861866 -0.032025799 0.44300002
0.053633571 -0.032025799 0.44300002
0.054282464 -0.031953506 0.44200003
0.055176981 -0.032025799 0.44300002
0.055822395 -0.031953506 0.44200003
0.056720395 -0.032025799 0.44300002
0.057621881 -0.032098092 0.44400004
0.058395326 -0.032098092 0.44400004
0.059302039 -0.032170389 0.44500002
0.060077228 -0.032170389 0.44500002
0.060989168 -0.032242682 0.44600001
0.061904587 -0.032314975 0.44700003
0.062823489 -0.032387268 0.44800001
0.063603908 -0.032387268 0.44800001
0.064384326 -0.032387268 0.44800001
0.065164737 -0.032387268 0.44800001
0.065945156 -0.032387268 0.44800001
0.066874512 -0.032459561 0.44900003
0.067656673 -0.032459561 0.44900003
0.068591252 -0.032531854 0.45000002
0.069375157 -0.032531854 0.45000002
0.070314966 -0.032604147 0.45100003
0.071100608 -0.032604147 0.45100003
0.072045639 -0.03267644 0.45200002
0.072833024 -0.03267644 0.45200002
0.073620409 -0.03267644 0.45200002
0.074407794 -0.03267644 0.45200002
0.075527899 -0.032821026 0.45400003
0.076318763 -0.032821026 0.45400003
0.077109635 -0.032821026 0.45400003
0.077900507 -0.032821026 0.45400003
0.078691371 -0.032821026 0.45400003
0.079482242 -0.032821026 0.45400003
0.080273107 -0.032821026 0.45400003
0.049335185 -0.031465746 0.44600001
0.049999759 -0.031395197 0.44500002
0.050774947 -0.031395197 0.44500002
0.051434293 -0.031324647 0.44400004
0.052207742 -0.031324647 0.44400004
0.052861866 -0.031254094 0.44300002
0.053633571 -0.031254094 0.44300002
0.054405276 -0.031254094 0.44300002
0.055176981 -0.031254094 0.44300002
0.05594869 -0.031254094 0.44300002
0.056720395 -0.031254094 0.44300002
0.057621881 -0.031324647 0.44400004
0.058526848 -0.031395197 0.44500002
0.059302039 -0.031395197 0.44500002
0.060212232 -0.031465746 0.44600001
0.060989168 -0.031465746 0.44600001
0.061904587 -0.0315363 0.44700003
0.062823489 -0.031606849 0.44800001
0.063603908 -0.031606849 0.44800001
0.064384326 -0.031606849 0.44800001
0.065164737 -0.031606849 0.44800001
0.066092357 -0.031677403 0.44900003
0.066874512 -0.031677403 0.44900003
0.067656673 -0.031677403 0.44900003
0.068591252 -0.031747952 0.45000002
0.069529325 -0.031818502 0.45100003
0.070314966 -0.031818502 0.45100003
0.071258254 -0.031889055 0.45200002
0.072045639 -0.031889055 0.45200002
0.072833024 -0.031889055 0.45200002
0.073620409 -0.031889055 0.45200002
0.074572414 -0.031959604 0.45300001
0.075527899 -0.032030158 0.45400003
0.076318763 -0.032030158 0.45400003
0.077109635 -0.032030158 0.45400003
0.077900507 -0.032030158 0.45400003
0.078691371 -0.032030158 0.45400003
0.079482242 -0.032030158 0.45400003
0.080273107 -0.032030158 0.45400003
0.081063978 -0.032030158 0.45400003
0.048667129 -0.030757625 0.44700003
0.0494458 -0.030757625 0.44700003
0.050112117 -0.030688817 0.44600001
0.050774947 -0.030620007 0.44500002
0.051550139 -0.030620007 0.44500002
0.052325327 -0.030620007 0.44500002
0.05298119 -0.030551197 0.44400004
0.053754639 -0.030551197 0.44400004
0.054528087 -0.030551197 0.44400004
0.055301536 -0.030551197 0.44400004
0.056074984 -0.030551197 0.44400004
0.056848433 -0.030551197 0.44400004
0.057621881 -0.030551197 0.44400004
0.058526848 -0.030620007 0.44500002
0.059302039 -0.030620007 0.44500002
0.060212232 -0.030688817 0.44600001
0.060989168 -0.030688817 0.44600001
0.061904587 -0.030757625 0.44700003
0.062823489 -0.030826434 0.44800001
0.063603908 -0.030826434 0.44800001
0.064528041 -0.030895242 0.44900003
0.065310195 -0.030895242 0.44900003
0.066092357 -0.030895242 0.44900003
0.067023456 -0.030964052 0.45000002
0.067807354 -0.030964052 0.45000002
0.068743676 -0.03103286 0.45100003
0.069529325 -0.03103286 0.45100003
0.070314966 -0.03103286 0.45100003
0.071258254 -0.03110167 0.45200002
0.072045639 -0.03110167 0.45200002
0.072994158 -0.031170478 0.45300001
0.073946163 -0.031239288 0.45400003
0.074737027 -0.031239288 0.45400003
0.075527899 -0.031239288 0.45400003
0.076318763 -0.031239288 0.45400003
0.077109635 -0.031239288 0.45400003
0.078072093 -0.031308096 0.45500001
0.078864701 -0.031308096 0.45500001
0.079482242 -0.031239288 0.45400003
0.080273107 -0.031239288 0.45400003
0.081063978 -0.031239288 0.45400003
0.048667129 -0.029978951 0.44700003
0.0494458 -0.029978951 0.44700003
0.050112117 -0.029911883 0.44600001
0.050889049 -0.029911883 0.44600001
0.051550139 -0.029844817 0.44500002
0.052325327 -0.029844817 0.44500002
0.05298119 -0.02977775 0.44400004
0.053754639 -0.02977775 0.44400004
0.054528087 -0.02977775 0.44400004
0.055301536 -0.02977775 0.44400004
0.056074984 -0.02977775 0.44400004
0.056848433 -0.02977775 0.44400004
0.057751659 -0.029844817 0.44500002
0.058526848 -0.029844817 0.44500002
0.059435301 -0.029911883 0.44600001
0.060212232 -0.029911883 0.44600001
0.060989168 -0.029911883 0.44600001
0.061904587 -0.029978951 0.44700003
0.062823489 -0.030046018 0.44800001
0.063603908 -0.030046018 0.44800001
0.064528041 -0.030113084 0.44900003
0.065310195 -0.030113084 0.44900003
0.066092357 -0.030113084 0.44900003
0.067023456 -0.030180153 0.45000002
0.067807354 -0.030180153 0.45000002
0.068743676 -0.030247219 0.45100003
0.069529325 -0.030247219 0.45100003
0.07047087 -0.030314285 0.45200002
0.071258254 -0.030314285 0.45200002
0.072205037 -0.030381354 0.45300001
0.073155291 -0.03044842 0.45400003
0.073946163 -0.03044842 0.45400003
0.074737027 -0.03044842 0.45400003
0.075694263 -0.030515486 0.45500001
0.076486871 -0.030515486 0.45500001
0.077279478 -0.030515486 0.45500001
0.078072093 -0.030515486 0.45500001
0.078864701 -0.030515486 0.45500001
0.079657309 -0.030515486 0.45500001
0.080449916 -0.030515486 0.45500001
0.081242532 -0.030515486 0.45500001
0.082035139 -0.030515486 0.45500001
0.048667129 -0.029200276 0.44700003
0.0494458 -0.029200276 0.44700003
0.050112117 -0.029134952 0.44600001
0.050889049 -0.029134952 0.44600001
0.05166598 -0.029134952 0.44600001
0.052325327 -0.029069627 0.44500002
0.053100519 -0.029069627 0.44500002
0.053875707 -0.029069627 0.44500002
0.054528087 -0.029004302 0.44400004
0.055301536 -0.029004302 0.44400004
0.056201279 -0.029069627 0.44500002
0.056976467 -0.029069627 0.44500002
0.057751659 -0.029069627 0.44500002
0.058526848 -0.029069627 0.44500002
0.059435301 -0.029134952 0.44600001
0.060212232 -0.029134952 0.44600001
0.060989168 -0.029134952 0.44600001
0.061904587 -0.029200276 0.44700003
0.062823489 -0.029265601 0.44800001
0.063745879 -0.029330926 0.44900003
0.064528041 -0.029330926 0.44900003
0.065310195 -0.029330926 0.44900003
0.066239551 -0.029396253 0.45000002
0.067023456 -0.029396253 0.45000002
0.067958035 -0.029461578 0.45100003
0.068743676 -0.029461578 0.45100003
0.069683485 -0.029526902 0.45200002
0.07047087 -0.029526902 0.45200002
0.071258254 -0.029526902 0.45200002
0.072205037 -0.029592227 0.45300001
0.073155291 -0.029657552 0.45400003
0.073946163 -0.029657552 0.45400003
0.074737027 -0.029657552 0.45400003
0.075694263 -0.029722877 0.45500001
0.076486871 -0.029722877 0.45500001
0.077279478 -0.029722877 0.45500001
0.078072093 -0.029722877 0.45500001
0.078864701 -0.029722877 0.45500001
0.079657309 -0.029722877 0.45500001
0.080449916 -0.029722877 0.45500001
0.081242532 -0.029722877 0.45500001
0.048776004 -0.028485186 0.44800001
0.049556419 -0.028485186 0.44800001
0.050224476 -0.028421603 0.44700003
0.050889049 -0.02835802 0.44600001
0.05166598 -0.02835802 0.44600001
0.052442912 -0.02835802 0.44600001
0.053100519 -0.028294437 0.44500002
0.053875707 -0.028294437 0.44500002
0.054650899 -0.028294437 0.44500002
0.055301536 -0.028230853 0.44400004
0.056201279 -0.028294437 0.44500002
0.056976467 -0.028294437 0.44500002
0.057751659 -0.028294437 0.44500002
0.058658369 -0.02835802 0.44600001
0.059435301 -0.02835802 0.44600001
0.060212232 -0.02835802 0.44600001
0.061125912 -0.028421603 0.44700003
0.062043075 -0.028485186 0.44800001
0.062963724 -0.02854877 0.44900003
0.063745879 -0.02854877 0.44900003
0.064528041 -0.02854877 0.44900003
0.065455653 -0.028612351 0.45000002
0.066239551 -0.028612351 0.45000002
0.067172393 -0.028675934 0.45100003
0.067958035 -0.028675934 0.45100003
0.068896107 -0.028739518 0.45200002
0.069683485 -0.028739518 0.45200002
0.07047087 -0.028739518 0.45200002
0.071415909 -0.028803101 0.45300001
0.072364427 -0.028866684 0.45400003
0.073155291 -0.028866684 0.45400003
0.073946163 -0.028866684 0.45400003
0.074901648 -0.028930267 0.45500001
0.075694263 -0.028930267 0.45500001
0.076486871 -0.028930267 0.45500001
0.077279478 -0.028930267 0.45500001
0.078072093 -0.028930267 0.45500001
0.078864701 -0.028930267 0.45500001
0.079657309 -0.028930267 0.45500001
0.080449916 -0.028930267 0.45500001
0.048776004 -0.02770477 0.44800001
0.049556419 -0.02770477 0.44800001
0.050336834 -0.02770477 0.44800001
0.050889049 -0.027581088 0.44600001
0.05166598 -0.027581088 0.44600001
0.052442912 -0.027581088 0.44600001
0.053100519 -0.027519247 0.44500002
0.053875707 -0.027519247 0.44500002
0.054650899 -0.027519247 0.44500002
0.055426087 -0.027519247 0.44500002
0.056201279 -0.027519247 0.44500002
0.056976467 -0.027519247 0.44500002
0.057881437 -0.027581088 0.44600001
0.058658369 -0.027581088 0.44600001
0.059568565 -0.027642928 0.44700003
0.06034724 -0.027642928 0.44700003
0.061125912 -0.027642928 0.44700003
0.062043075 -0.02770477 0.44800001
0.062963724 -0.027766611 0.44900003
0.063745879 -0.027766611 0.44900003
0.064671755 -0.027828451 0.45000002
0.065455653 -0.027828451 0.45000002
0.066386752 -0.027890293 0.45100003
0.067172393 -0.027890293 0.45100003
0.067958035 -0.027890293 0.45100003
0.068896107 -0.027952135 0.45200002
0.069683485 -0.027952135 0.45200002
0.07062678 -0.028013974 0.45300001
0.071573555 -0.028075816 0.45400003
0.072364427 -0.028075816 0.45400003
0.073155291 -0.028075816 0.45400003
0.07410904 -0.028137656 0.45500001
0.074901648 -0.028137656 0.45500001
0.075694263 -0.028137656 0.45500001
0.076486871 -0.028137656 0.45500001
0.077279478 -0.028137656 0.45500001
0.078072093 -0.028137656 0.45500001
0.078864701 -0.028137656 0.45500001
0.079657309 -0.028137656 0.45500001
0.080449916 -0.028137656 0.45500001
0.081242532 -0.028137656 0.45500001
0.048776004 -0.026924353 0.44800001
0.049556419 -0.026924353 0.44800001
0.050336834 -0.026924353 0.44800001
0.050889049 -0.026804157 0.44600001
0.05166598 -0.026804157 0.44600001
0.052442912 -0.026804157 0.44600001
0.053100519 -0.026744056 0.44500002
0.053875707 -0.026744056 0.44500002
0.054650899 -0.026744056 0.44500002
0.055426087 -0.026744056 0.44500002
0.056201279 -0.026744056 0.44500002
0.057104506 -0.026804157 0.44600001
0.057881437 -0.026804157 0.44600001
0.058658369 -0.026804157 0.44600001
0.059568565 -0.026864255 0.44700003
0.06034724 -0.026864255 0.44700003
0.06126266 -0.026924353 0.44800001
0.062181566 -0.026984453 0.44900003
0.062963724 -0.026984453 0.44900003
0.063887857 -0.027044551 0.45000002
0.064671755 -0.027044551 0.45000002
0.06560111 -0.027104652 0.45100003
0.066386752 -0.027104652 0.45100003
0.067172393 -0.027104652 0.45100003
0.068108723 -0.02716475 0.45200002
0.068896107 -0.02716475 0.45200002
0.069837652 -0.027224848 0.45300001
0.070782691 -0.027284948 0.45400003
0.071573555 -0.027284948 0.45400003
0.072364427 -0.027284948 0.45400003
0.073155291 -0.027284948 0.45400003
0.07410904 -0.027345046 0.45500001
0.074901648 -0.027345046 0.45500001
0.075694263 -0.027345046 0.45500001
0.076486871 -0.027345046 0.45500001
0.077279478 -0.027345046 0.45500001
0.078072093 -0.027345046 0.45500001
0.079038031 -0.027405147 0.45600003
0.079832383 -0.027405147 0.45600003
0.080626734 -0.027405147 0.45600003
0.048993751 -0.026260652 0.45000002
0.049667034 -0.026202295 0.44900003
0.050336834 -0.026143938 0.44800001
0.051003151 -0.02608558 0.44700003
0.05166598 -0.026027223 0.44600001
0.052442912 -0.026027223 0.44600001
0.053219844 -0.026027223 0.44600001
0.053996779 -0.026027223 0.44600001
0.054650899 -0.025968866 0.44500002
0.055426087 -0.025968866 0.44500002
0.056327574 -0.026027223 0.44600001
0.057104506 -0.026027223 0.44600001
0.058011215 -0.02608558 0.44700003
0.05878989 -0.02608558 0.44700003
0.059701826 -0.026143938 0.44800001
0.060482245 -0.026143938 0.44800001
0.06126266 -0.026143938 0.44800001
0.062181566 -0.026202295 0.44900003
0.062963724 -0.026202295 0.44900003
0.063887857 -0.026260652 0.45000002
0.064815469 -0.026319008 0.45100003
0.06560111 -0.026319008 0.45100003
0.066386752 -0.026319008 0.45100003
0.067172393 -0.026319008 0.45100003
0.068108723 -0.026377365 0.45200002
0.068896107 -0.026377365 0.45200002
0.069837652 -0.026435724 0.45300001
0.070782691 -0.02649408 0.45400003
0.071573555 -0.02649408 0.45400003
0.072364427 -0.02649408 0.45400003
0.073155291 -0.02649408 0.45400003
0.07410904 -0.026552437 0.45500001
0.074901648 -0.026552437 0.45500001
0.075694263 -0.026552437 0.45500001
0.076486871 -0.026552437 0.45500001
0.077449322 -0.026610794 0.45600003
0.07824368 -0.026610794 0.45600003
0.079038031 -0.026610794 0.45600003
0.080007449 -0.02666915 0.45700002
0.080626734 -0.026610794 0.45600003
0.048993751 -0.025476752 0.45000002
