# .PCD v0.7 - Point Cloud Data file format
VERSION 0.7
FIELDS x y z
SIZE 4 4 4
TYPE F F F
COUNT 1 1 1
WIDTH 1342
HEIGHT 1
VIEWPOINT 0 0 0 1 0 0 0
POINTS 1342
DATA ascii
0.078474492 -0.068804651 0.42700002
0.079218328 -0.068804651 0.42700002
0.079962157 -0.068804651 0.42700002
0.080516987 -0.068643518 0.42600003
0.081449829 -0.068804651 0.42700002
0.082193665 -0.068804651 0.42700002
0.082937494 -0.068804651 0.42700002
0.083877303 -0.068965785 0.42800003
0.084622882 -0.068965785 0.42800003
0.085567914 -0.069126919 0.42900002
0.086315237 -0.069126919 0.42900002
0.087265499 -0.069288053 0.43000001
0.088014558 -0.069288053 0.43000001
0.088970043 -0.069449186 0.43100002
0.089720845 -0.069449186 0.43100002
0.09068156 -0.069610327 0.43200001
0.091434099 -0.069610327 0.43200001
0.092613436 -0.069932595 0.43400002
0.093369462 -0.069932595 0.43400002
0.094125494 -0.069932595 0.43400002
0.095100142 -0.070093729 0.43500003
0.096078277 -0.070254862 0.43600002
0.096837789 -0.070254862 0.43600002
0.097597301 -0.070254862 0.43600002
0.098356813 -0.070254862 0.43600002
0.09934365 -0.070415996 0.43700001
0.10010491 -0.070415996 0.43700001
0.10086616 -0.070415996 0.43700001
0.10162742 -0.070415996 0.43700001
0.10238867 -0.070415996 0.43700001
0.103622 -0.070738271 0.43900001
0.072956704 -0.06917657 0.43400002
0.073373042 -0.068857782 0.43200001
0.074125588 -0.068857782 0.43200001
0.074704804 -0.068698384 0.43100002
0.075455606 -0.068698384 0.43100002
0.076029591 -0.068538994 0.43000001
0.076778658 -0.068538994 0.43000001
0.07734742 -0.068379603 0.42900002
0.077912696 -0.068220206 0.42800003
0.078474492 -0.068060815 0.42700002
0.079218328 -0.068060815 0.42700002
0.079962157 -0.068060815 0.42700002
0.080705993 -0.068060815 0.42700002
0.081449829 -0.068060815 0.42700002
0.082193665 -0.068060815 0.42700002
0.083131731 -0.068220206 0.42800003
0.083877303 -0.068220206 0.42800003
0.084820598 -0.068379603 0.42900002
0.085567914 -0.068379603 0.42900002
0.086516432 -0.068538994 0.43000001
0.087265499 -0.068538994 0.43000001
0.08821924 -0.068698384 0.43100002
0.088970043 -0.068698384 0.43100002
0.089720845 -0.068698384 0.43100002
0.090891466 -0.069017172 0.43300003
0.091857411 -0.06917657 0.43400002
0.092613436 -0.06917657 0.43400002
0.093369462 -0.06917657 0.43400002
0.094342373 -0.06933596 0.43500003
0.095318764 -0.06949535 0.43600002
0.096078277 -0.06949535 0.43600002
0.096837789 -0.06949535 0.43600002
0.097597301 -0.06949535 0.43600002
0.098356813 -0.06949535 0.43600002
0.09934365 -0.069654748 0.43700001
0.10033398 -0.069814138 0.43800002
0.10109697 -0.069814138 0.43800002
0.10209253 -0.069973528 0.43900001
0.10285727 -0.069973528 0.43900001
0.103622 -0.069973528 0.43900001
0.10462452 -0.070132926 0.44000003
0.072956704 -0.068420537 0.43400002
0.073542893 -0.06826289 0.43300003
0.074125588 -0.068105236 0.43200001
0.074878134 -0.068105236 0.43200001
0.075455606 -0.067947589 0.43100002
0.076029591 -0.067789935 0.43000001
0.076778658 -0.067789935 0.43000001
0.077527717 -0.067789935 0.43000001
0.078094736 -0.06763228 0.42900002
0.078658275 -0.067474633 0.42800003
0.079218328 -0.067316979 0.42700002
0.080149427 -0.067474633 0.42800003
0.080894999 -0.067474633 0.42800003
0.081640579 -0.067474633 0.42800003
0.082386151 -0.067474633 0.42800003
0.08332596 -0.06763228 0.42900002
0.084073283 -0.06763228 0.42900002
0.084820598 -0.06763228 0.42900002
0.085567914 -0.06763228 0.42900002
0.086516432 -0.067789935 0.43000001
0.087468438 -0.067947589 0.43100002
0.08821924 -0.067947589 0.43100002
0.089176469 -0.068105236 0.43200001
0.089929014 -0.068105236 0.43200001
0.091101378 -0.068420537 0.43400002
0.09206906 -0.068578191 0.43500003
0.092826828 -0.068578191 0.43500003
0.093584597 -0.068578191 0.43500003
0.094342373 -0.068578191 0.43500003
0.095318764 -0.068735838 0.43600002
0.096298635 -0.068893492 0.43700001
0.096837789 -0.068735838 0.43600002
0.097597301 -0.068735838 0.43600002
0.099033579 -0.069208793 0.43900001
0.099798314 -0.069208793 0.43900001
0.10056306 -0.069208793 0.43900001
0.1015586 -0.069366448 0.44000003
0.10232509 -0.069366448 0.44000003
0.10309157 -0.069366448 0.44000003
0.10385805 -0.069366448 0.44000003
0.10462452 -0.069366448 0.44000003
0.072956704 -0.067664512 0.43400002
0.073712736 -0.067664512 0.43400002
0.074125588 -0.06735269 0.43200001
0.074878134 -0.06735269 0.43200001
0.07563068 -0.06735269 0.43200001
0.076206408 -0.067196786 0.43100002
0.076778658 -0.067040876 0.43000001
0.077527717 -0.067040876 0.43000001
0.078094736 -0.066884965 0.42900002
0.078842051 -0.066884965 0.42900002
0.079403847 -0.066729054 0.42800003
0.080149427 -0.066729054 0.42800003
0.080894999 -0.066729054 0.42800003
0.081831329 -0.066884965 0.42900002
0.082578644 -0.066884965 0.42900002
0.08332596 -0.066884965 0.42900002
0.084073283 -0.066884965 0.42900002
0.084820598 -0.066884965 0.42900002
0.085767373 -0.067040876 0.43000001
0.086717635 -0.067196786 0.43100002
0.087671384 -0.06735269 0.43200001
0.088423923 -0.06735269 0.43200001
0.089382894 -0.067508601 0.43300003
0.090137184 -0.067508601 0.43300003
0.091311291 -0.067820422 0.43500003
0.09206906 -0.067820422 0.43500003
0.092826828 -0.067820422 0.43500003
0.093584597 -0.067820422 0.43500003
0.094559252 -0.067976326 0.43600002
0.095537379 -0.068132237 0.43700001
0.096519001 -0.068288147 0.43800002
0.097281992 -0.068288147 0.43800002
0.098268837 -0.068444058 0.43900001
0.099259168 -0.068599962 0.44000003
0.10002565 -0.068599962 0.44000003
0.10079212 -0.068599962 0.44000003
0.1015586 -0.068599962 0.44000003
0.10255764 -0.068755873 0.44100001
0.10332587 -0.068755873 0.44100001
0.10409409 -0.068755873 0.44100001
0.072956704 -0.066908479 0.43400002
0.073712736 -0.066908479 0.43400002
0.074125588 -0.066600151 0.43200001
0.074878134 -0.066600151 0.43200001
0.07563068 -0.066600151 0.43200001
0.076206408 -0.066445984 0.43100002
0.076778658 -0.066291817 0.43000001
0.07734742 -0.066137649 0.42900002
0.078276776 -0.066291817 0.43000001
0.078842051 -0.066137649 0.42900002
0.079589374 -0.066137649 0.42900002
0.08033669 -0.066137649 0.42900002
0.081084006 -0.066137649 0.42900002
0.081831329 -0.066137649 0.42900002
0.082771137 -0.066291817 0.43000001
0.083520196 -0.066291817 0.43000001
0.084269255 -0.066291817 0.43000001
0.08521603 -0.066445984 0.43100002
0.086166292 -0.066600151 0.43200001
0.087120041 -0.066754319 0.43300003
0.087874323 -0.066754319 0.43300003
0.088628612 -0.066754319 0.43300003
0.08958932 -0.066908479 0.43400002
0.090761691 -0.067216814 0.43600002
0.091521204 -0.067216814 0.43600002
0.092280716 -0.067216814 0.43600002
0.093040228 -0.067216814 0.43600002
0.09379974 -0.067216814 0.43600002
0.094776131 -0.067370981 0.43700001
0.095756002 -0.067525148 0.43800002
0.096739367 -0.067679316 0.43900001
0.097504102 -0.067679316 0.43900001
0.098492689 -0.067833483 0.44000003
0.099259168 -0.067833483 0.44000003
0.10002565 -0.067833483 0.44000003
0.10079212 -0.067833483 0.44000003
0.10178942 -0.067987651 0.44100001
0.10255764 -0.067987651 0.44100001
0.10332587 -0.067987651 0.44100001
0.10409409 -0.067987651 0.44100001
0.07388258 -0.066304877 0.43500003
0.074125588 -0.065847605 0.43200001
0.074878134 -0.065847605 0.43200001
0.075805746 -0.066000029 0.43300003
0.076206408 -0.065695181 0.43100002
0.076778658 -0.065542758 0.43000001
0.077527717 -0.065542758 0.43000001
0.078276776 -0.065542758 0.43000001
0.078842051 -0.065390326 0.42900002
0.079774894 -0.065542758 0.43000001
0.080523953 -0.065542758 0.43000001
0.081273012 -0.065542758 0.43000001
0.082022078 -0.065542758 0.43000001
0.082963623 -0.065695181 0.43100002
0.083714426 -0.065695181 0.43100002
0.084465228 -0.065695181 0.43100002
0.085413747 -0.065847605 0.43200001
0.086166292 -0.065847605 0.43200001
0.087321237 -0.066152453 0.43400002
0.088077269 -0.066152453 0.43400002
0.088833295 -0.066152453 0.43400002
0.089795753 -0.066304877 0.43500003
0.090761691 -0.066457301 0.43600002
0.091521204 -0.066457301 0.43600002
0.092280716 -0.066457301 0.43600002
0.09325362 -0.066609733 0.43700001
0.094014876 -0.066609733 0.43700001
0.09499301 -0.066762157 0.43800002
0.095974624 -0.066914581 0.43900001
0.096959725 -0.067067005 0.44000003
0.097726204 -0.067067005 0.44000003
0.098492689 -0.067067005 0.44000003
0.099259168 -0.067067005 0.44000003
0.10002565 -0.067067005 0.44000003
0.10079212 -0.067067005 0.44000003
0.10178942 -0.067219429 0.44100001
0.10255764 -0.067219429 0.44100001
0.10332587 -0.067219429 0.44100001
0.10409409 -0.067219429 0.44100001
0.074052423 -0.065697789 0.43600002
0.074811935 -0.065697789 0.43600002
0.074878134 -0.06509506 0.43200001
0.07563068 -0.06509506 0.43200001
0.076206408 -0.064944379 0.43100002
0.076957211 -0.064944379 0.43100002
0.077708013 -0.064944379 0.43100002
0.078276776 -0.064793691 0.43000001
0.079025835 -0.064793691 0.43000001
0.079774894 -0.064793691 0.43000001
0.080523953 -0.064793691 0.43000001
0.081273012 -0.064793691 0.43000001
0.082212821 -0.064944379 0.43100002
0.082963623 -0.064944379 0.43100002
0.083714426 -0.064944379 0.43100002
0.084661208 -0.06509506 0.43200001
0.085413747 -0.06509506 0.43200001
0.086565211 -0.065396428 0.43400002
0.08752244 -0.065547109 0.43500003
0.088280208 -0.065547109 0.43500003
0.089037977 -0.065547109 0.43500003
0.090002179 -0.065697789 0.43600002
0.090761691 -0.065697789 0.43600002
0.091521204 -0.065697789 0.43600002
0.092492364 -0.065848477 0.43700001
0.09325362 -0.065848477 0.43700001
0.094014876 -0.065848477 0.43700001
0.09499301 -0.065999158 0.43800002
0.096193247 -0.066300526 0.44000003
0.096959725 -0.066300526 0.44000003
0.097726204 -0.066300526 0.44000003
0.098716535 -0.066451207 0.44100001
0.099484757 -0.066451207 0.44100001
0.10025298 -0.066451207 0.44100001
0.1010212 -0.066451207 0.44100001
0.10202023 -0.066601887 0.44200003
0.1027902 -0.066601887 0.44200003
0.10332587 -0.066451207 0.44100001
0.10409409 -0.066451207 0.44100001
0.074222267 -0.065087222 0.43700001
0.074983522 -0.065087222 0.43700001
0.075571448 -0.064938277 0.43600002
0.07633096 -0.064938277 0.43600002
0.076913662 -0.06478934 0.43500003
0.076957211 -0.064193577 0.43100002
0.077708013 -0.064193577 0.43100002
0.078458816 -0.064193577 0.43100002
0.079025835 -0.064044632 0.43000001
0.079774894 -0.064044632 0.43000001
0.080711223 -0.064193577 0.43100002
0.081462026 -0.064193577 0.43100002
0.082212821 -0.064193577 0.43100002
0.083156116 -0.064342514 0.43200001
0.083908662 -0.064342514 0.43200001
0.084661208 -0.064342514 0.43200001
0.086006902 -0.06478934 0.43500003
0.086764671 -0.06478934 0.43500003
0.08752244 -0.06478934 0.43500003
0.088483155 -0.064938277 0.43600002
0.089242667 -0.064938277 0.43600002
0.090002179 -0.064938277 0.43600002
0.090761691 -0.064938277 0.43600002
0.091731116 -0.065087222 0.43700001
0.092492364 -0.065087222 0.43700001
0.093467019 -0.065236159 0.43800002
0.094445147 -0.065385103 0.43900001
0.095209889 -0.065385103 0.43900001
0.096193247 -0.065534048 0.44000003
0.097180091 -0.065682985 0.44100001
0.097948313 -0.065682985 0.44100001
0.098716535 -0.065682985 0.44100001
0.099484757 -0.065682985 0.44100001
0.10025298 -0.065682985 0.44100001
0.10125028 -0.065831929 0.44200003
0.10202023 -0.065831929 0.44200003
0.1027902 -0.065831929 0.44200003
0.10332587 -0.065682985 0.44100001
0.073461019 -0.064325966 0.43700001
0.074222267 -0.064325966 0.43700001
0.074811935 -0.064178765 0.43600002
0.075571448 -0.064178765 0.43600002
0.07633096 -0.064178765 0.43600002
0.076913662 -0.064031571 0.43500003
0.077492878 -0.06388437 0.43400002
0.07788831 -0.063589975 0.43200001
0.078458816 -0.063442774 0.43100002
0.079209618 -0.063442774 0.43100002
0.079960421 -0.063442774 0.43100002
0.080711223 -0.063442774 0.43100002
0.081462026 -0.063442774 0.43100002
0.08240357 -0.063589975 0.43200001
0.083156116 -0.063589975 0.43200001
0.083908662 -0.063589975 0.43200001
0.085053153 -0.06388437 0.43400002
0.086006902 -0.064031571 0.43500003
0.08696413 -0.064178765 0.43600002
0.087723643 -0.064178765 0.43600002
0.088483155 -0.064178765 0.43600002
0.089242667 -0.064178765 0.43600002
0.090002179 -0.064178765 0.43600002
0.090969861 -0.064325966 0.43700001
0.091731116 -0.064325966 0.43700001
0.09270402 -0.064473167 0.43800002
0.093467019 -0.064473167 0.43800002
0.094445147 -0.064620368 0.43900001
0.095426768 -0.064767562 0.44000003
0.096411869 -0.064914763 0.44100001
0.097180091 -0.064914763 0.44100001
0.097948313 -0.064914763 0.44100001
0.09894038 -0.065061964 0.44200003
0.099710345 -0.065061964 0.44200003
0.10048031 -0.065061964 0.44200003
0.10147934 -0.065209158 0.44300002
0.10202023 -0.065061964 0.44200003
0.1027902 -0.065061964 0.44200003
0.10356016 -0.065061964 0.44200003
0.074222267 -0.06356471 0.43700001
0.074811935 -0.063419253 0.43600002
0.075571448 -0.063419253 0.43600002
0.076155886 -0.063273802 0.43500003
0.076913662 -0.063273802 0.43500003
0.077492878 -0.063128345 0.43400002
0.078248903 -0.063128345 0.43400002
0.078640856 -0.062837429 0.43200001
0.079209618 -0.062691972 0.43100002
0.079960421 -0.062691972 0.43100002
0.080898486 -0.062837429 0.43200001
0.081651032 -0.062837429 0.43200001
0.08240357 -0.062837429 0.43200001
0.083156116 -0.062837429 0.43200001
0.084297128 -0.063128345 0.43400002
0.085053153 -0.063128345 0.43400002
0.086006902 -0.063273802 0.43500003
0.08696413 -0.063419253 0.43600002
0.087723643 -0.063419253 0.43600002
0.088483155 -0.063419253 0.43600002
0.089447349 -0.06356471 0.43700001
0.090208605 -0.06356471 0.43700001
0.090969861 -0.06356471 0.43700001
0.091941021 -0.063710168 0.43800002
0.09270402 -0.063710168 0.43800002
0.093680412 -0.063855626 0.43900001
0.09466029 -0.064001083 0.44000003
0.095643647 -0.064146541 0.44100001
0.096411869 -0.064146541 0.44100001
0.097400449 -0.064291999 0.44200003
0.098170415 -0.064291999 0.44200003
0.09894038 -0.064291999 0.44200003
0.099710345 -0.064291999 0.44200003
0.10070764 -0.064437456 0.44300002
0.10170842 -0.064582914 0.44400004
0.10225105 -0.064437456 0.44300002
0.10302275 -0.064437456 0.44300002
0.073629119 -0.062947176 0.43800002
0.074392118 -0.062947176 0.43800002
0.074983522 -0.062803462 0.43700001
0.075571448 -0.06265974 0.43600002
0.076155886 -0.062516026 0.43500003
0.076913662 -0.062516026 0.43500003
0.077492878 -0.062372316 0.43400002
0.078248903 -0.062372316 0.43400002
0.078822888 -0.062228598 0.43300003
0.079393394 -0.062084883 0.43200001
0.08014594 -0.062084883 0.43200001
0.080898486 -0.062084883 0.43200001
0.081651032 -0.062084883 0.43200001
0.08240357 -0.062084883 0.43200001
0.083541103 -0.062372316 0.43400002
0.084297128 -0.062372316 0.43400002
0.085249133 -0.062516026 0.43500003
0.086204618 -0.06265974 0.43600002
0.08696413 -0.06265974 0.43600002
0.087723643 -0.06265974 0.43600002
0.088686094 -0.062803462 0.43700001
0.089447349 -0.062803462 0.43700001
0.090208605 -0.062803462 0.43700001
0.09117803 -0.062947176 0.43800002
0.092150934 -0.063090891 0.43900001
0.092915669 -0.063090891 0.43900001
0.093680412 -0.063090891 0.43900001
0.09466029 -0.063234605 0.44000003
0.095643647 -0.063378319 0.44100001
0.096411869 -0.063378319 0.44100001
0.097400449 -0.063522033 0.44200003
0.098170415 -0.063522033 0.44200003
0.09894038 -0.063522033 0.44200003
0.099935934 -0.063665748 0.44300002
0.1011623 -0.063953176 0.44500002
0.10170842 -0.063809462 0.44400004
0.10248186 -0.063809462 0.44400004
0.10325532 -0.063809462 0.44400004
0.10402876 -0.063809462 0.44400004
0.073629119 -0.062184177 0.43800002
0.074392118 -0.062184177 0.43800002
0.074983522 -0.062042207 0.43700001
0.075571448 -0.061900232 0.43600002
0.076155886 -0.061758257 0.43500003
0.076913662 -0.061758257 0.43500003
0.077492878 -0.061616287 0.43400002
0.078248903 -0.061616287 0.43400002
0.079004928 -0.061616287 0.43400002
0.079577178 -0.061474312 0.43300003
0.080331467 -0.061474312 0.43300003
0.081085749 -0.061474312 0.43300003
0.081840038 -0.061474312 0.43300003
0.08259432 -0.061474312 0.43300003
0.083541103 -0.061616287 0.43400002
0.084491357 -0.061758257 0.43500003
0.085249133 -0.061758257 0.43500003
0.086204618 -0.061900232 0.43600002
0.08696413 -0.061900232 0.43600002
0.087924846 -0.062042207 0.43700001
0.088686094 -0.062042207 0.43700001
0.089447349 -0.062042207 0.43700001
0.090415031 -0.062184177 0.43800002
0.091386199 -0.062326152 0.43900001
0.092150934 -0.062326152 0.43900001
0.092915669 -0.062326152 0.43900001
0.093893804 -0.062468123 0.44000003
0.094875425 -0.062610097 0.44100001
0.095860526 -0.062752068 0.44200003
0.096630491 -0.062752068 0.44200003
0.097400449 -0.062752068 0.44200003
0.098392524 -0.062894046 0.44300002
0.099164225 -0.062894046 0.44300002
0.10038711 -0.063177988 0.44500002
0.1011623 -0.063177988 0.44500002
0.10193749 -0.063177988 0.44500002
0.10248186 -0.063036017 0.44400004
0.10348787 -0.063177988 0.44500002
0.073629119 -0.061421182 0.43800002
0.074222267 -0.061280951 0.43700001
0.074983522 -0.061280951 0.43700001
0.075571448 -0.06114072 0.43600002
0.076155886 -0.061000489 0.43500003
0.076913662 -0.061000489 0.43500003
0.077671431 -0.061000489 0.43500003
0.078248903 -0.060860258 0.43400002
0.079004928 -0.060860258 0.43400002
0.079760961 -0.060860258 0.43400002
0.080516987 -0.060860258 0.43400002
0.081273012 -0.060860258 0.43400002
0.082029045 -0.060860258 0.43400002
0.08278507 -0.060860258 0.43400002
0.083733588 -0.061000489 0.43500003
0.084491357 -0.061000489 0.43500003
0.085445106 -0.06114072 0.43600002
0.086204618 -0.06114072 0.43600002
0.08716359 -0.061280951 0.43700001
0.087924846 -0.061280951 0.43700001
0.088686094 -0.061280951 0.43700001
0.089652039 -0.061421182 0.43800002
0.090621457 -0.061561413 0.43900001
0.091386199 -0.061561413 0.43900001
0.092150934 -0.061561413 0.43900001
0.093127325 -0.061701644 0.44000003
0.094107203 -0.061841875 0.44100001
0.095090561 -0.061982106 0.44200003
0.095860526 -0.061982106 0.44200003
0.096630491 -0.061982106 0.44200003
0.097620815 -0.062122338 0.44300002
0.098614626 -0.062262569 0.44400004
0.099611923 -0.0624028 0.44500002
0.10038711 -0.0624028 0.44500002
0.1011623 -0.0624028 0.44500002
0.10193749 -0.0624028 0.44500002
0.10271268 -0.0624028 0.44500002
0.10348787 -0.0624028 0.44500002
0.073797219 -0.060796674 0.43900001
0.074561961 -0.060796674 0.43900001
0.074983522 -0.060519695 0.43700001
0.075571448 -0.060381208 0.43600002
0.07633096 -0.060381208 0.43600002
0.076913662 -0.06024272 0.43500003
0.077671431 -0.06024272 0.43500003
0.0784292 -0.06024272 0.43500003
0.079004928 -0.060104229 0.43400002
0.079760961 -0.060104229 0.43400002
0.080516987 -0.060104229 0.43400002
0.081273012 -0.060104229 0.43400002
0.082029045 -0.060104229 0.43400002
0.08297582 -0.06024272 0.43500003
0.083733588 -0.06024272 0.43500003
0.084685594 -0.060381208 0.43600002
0.085445106 -0.060381208 0.43600002
0.086402334 -0.060519695 0.43700001
0.08716359 -0.060519695 0.43700001
0.088126041 -0.060658187 0.43800002
0.08888904 -0.060658187 0.43800002
0.089856721 -0.060796674 0.43900001
0.090621457 -0.060796674 0.43900001
0.091386199 -0.060796674 0.43900001
0.092360847 -0.060935162 0.44000003
0.093338981 -0.061073653 0.44100001
0.094320595 -0.061212141 0.44200003
0.095090561 -0.061212141 0.44200003
0.095860526 -0.061212141 0.44200003
0.096849106 -0.061350632 0.44300002
0.097841181 -0.06148912 0.44400004
0.098836727 -0.061627608 0.44500002
0.099611923 -0.061627608 0.44500002
0.10038711 -0.061627608 0.44500002
0.1011623 -0.061627608 0.44500002
0.10193749 -0.061627608 0.44500002
0.10271268 -0.061627608 0.44500002
0.074811935 -0.059621695 0.43600002
0.075571448 -0.059621695 0.43600002
0.07633096 -0.059621695 0.43600002
0.077090472 -0.059621695 0.43600002
0.077671431 -0.059484947 0.43500003
0.0784292 -0.059484947 0.43500003
0.079004928 -0.059348203 0.43400002
0.079760961 -0.059348203 0.43400002
0.080702513 -0.059484947 0.43500003
0.081460282 -0.059484947 0.43500003
0.082218051 -0.059484947 0.43500003
0.08297582 -0.059484947 0.43500003
0.083926082 -0.059621695 0.43600002
0.084879823 -0.059758443 0.43700001
0.085641079 -0.059758443 0.43700001
0.08660005 -0.059895191 0.43800002
0.087363049 -0.059895191 0.43800002
0.088327244 -0.060031936 0.43900001
0.089091979 -0.060031936 0.43900001
0.089856721 -0.060031936 0.43900001
0.090827882 -0.060168684 0.44000003
0.091594368 -0.060168684 0.44000003
0.092570759 -0.060305431 0.44100001
0.09355063 -0.060442179 0.44200003
0.094320595 -0.060442179 0.44200003
0.095305696 -0.060578924 0.44300002
0.096294284 -0.060715672 0.44400004
0.097067729 -0.060715672 0.44400004
0.098061539 -0.06085242 0.44500002
0.098836727 -0.06085242 0.44500002
0.099611923 -0.06085242 0.44500002
0.10038711 -0.06085242 0.44500002
0.1011623 -0.06085242 0.44500002
0.10193749 -0.06085242 0.44500002
0.10271268 -0.06085242 0.44500002
0.075841457 -0.059672214 0.44200003
0.075571448 -0.058862183 0.43600002
0.07633096 -0.058862183 0.43600002
0.077090472 -0.058862183 0.43600002
0.077671431 -0.058727179 0.43500003
0.0784292 -0.058727179 0.43500003
0.079186969 -0.058727179 0.43500003
0.079944737 -0.058727179 0.43500003
0.080702513 -0.058727179 0.43500003
0.081460282 -0.058727179 0.43500003
0.082407057 -0.058862183 0.43600002
0.083166569 -0.058862183 0.43600002
0.083926082 -0.058862183 0.43600002
0.08507406 -0.059132192 0.43800002
0.085837059 -0.059132192 0.43800002
0.086797766 -0.059267201 0.43900001
0.087562509 -0.059267201 0.43900001
0.088327244 -0.059267201 0.43900001
0.089091979 -0.059267201 0.43900001
0.090061404 -0.059402205 0.44000003
0.091034316 -0.05953721 0.44100001
0.091802537 -0.05953721 0.44100001
0.092780665 -0.059672214 0.44200003
0.09355063 -0.059672214 0.44200003
0.094533987 -0.059807219 0.44300002
0.095520832 -0.059942223 0.44400004
0.096511163 -0.060077228 0.44500002
0.097286351 -0.060077228 0.44500002
0.098061539 -0.060077228 0.44500002
0.099058837 -0.060212232 0.44600001
0.099835768 -0.060212232 0.44600001
0.1006127 -0.060212232 0.44600001
0.10138963 -0.060212232 0.44600001
0.10216656 -0.060212232 0.44600001
0.10294349 -0.060212232 0.44600001
0.075071491 -0.058902249 0.44200003
0.075841457 -0.058902249 0.44200003
0.076611422 -0.058902249 0.44200003
0.077381387 -0.058902249 0.44200003
0.077090472 -0.058102671 0.43600002
0.077849984 -0.058102671 0.43600002
0.078609496 -0.058102671 0.43600002
0.079369009 -0.058102671 0.43600002
0.080128521 -0.058102671 0.43600002
0.080888033 -0.058102671 0.43600002
0.081647545 -0.058102671 0.43600002
0.082407057 -0.058102671 0.43600002
0.083357319 -0.058235936 0.43700001
0.084311061 -0.058369197 0.43800002
0.085268289 -0.058502462 0.43900001
0.086033031 -0.058502462 0.43900001
0.086797766 -0.058502462 0.43900001
0.087761968 -0.058635723 0.44000003
0.088528447 -0.058635723 0.44000003
0.089294925 -0.058635723 0.44000003
0.090266094 -0.058768988 0.44100001
0.091240741 -0.058902249 0.44200003
0.092010707 -0.058902249 0.44200003
0.092780665 -0.058902249 0.44200003
0.093762286 -0.059035514 0.44300002
0.094533987 -0.059035514 0.44300002
0.095305696 -0.059035514 0.44300002
0.096511163 -0.059302039 0.44500002
0.097286351 -0.059302039 0.44500002
0.098281905 -0.059435301 0.44600001
0.099058837 -0.059435301 0.44600001
0.099835768 -0.059435301 0.44600001
0.1006127 -0.059435301 0.44600001
0.10138963 -0.059435301 0.44600001
0.10216656 -0.059435301 0.44600001
0.074301533 -0.058132287 0.44200003
0.075071491 -0.058132287 0.44200003
0.075841457 -0.058132287 0.44200003
0.076611422 -0.058132287 0.44200003
0.077381387 -0.058132287 0.44200003
0.077444099 -0.057606202 0.43800002
0.078028537 -0.05747468 0.43700001
0.078789793 -0.05747468 0.43700001
0.079369009 -0.057343159 0.43600002
0.080128521 -0.057343159 0.43600002
0.080888033 -0.057343159 0.43600002
0.081834808 -0.05747468 0.43700001
0.082596064 -0.05747468 0.43700001
0.083548069 -0.057606202 0.43800002
0.084503554 -0.057737723 0.43900001
0.085268289 -0.057737723 0.43900001
0.086033031 -0.057737723 0.43900001
0.086995482 -0.057869244 0.44000003
0.087761968 -0.057869244 0.44000003
0.08872965 -0.058000766 0.44100001
0.089497872 -0.058000766 0.44100001
0.090470776 -0.058132287 0.44200003
0.091240741 -0.058132287 0.44200003
0.092218876 -0.058263808 0.44300002
0.092990577 -0.058263808 0.44300002
0.093762286 -0.058263808 0.44300002
0.094533987 -0.058263808 0.44300002
0.095520832 -0.058395326 0.44400004
0.096511163 -0.058526848 0.44500002
0.097504973 -0.058658369 0.44600001
0.098281905 -0.058658369 0.44600001
0.099058837 -0.058658369 0.44600001
0.099835768 -0.058658369 0.44600001
0.10083829 -0.05878989 0.44700003
0.10161696 -0.05878989 0.44700003
0.10216656 -0.058658369 0.44600001
0.074469633 -0.0574921 0.44300002
0.075071491 -0.057362322 0.44200003
0.075841457 -0.057362322 0.44200003
0.076611422 -0.057362322 0.44200003
0.077206314 -0.057232544 0.44100001
0.077620909 -0.056972984 0.43900001
0.078207098 -0.056843206 0.43800002
0.078789793 -0.056713428 0.43700001
0.079551049 -0.056713428 0.43700001
0.080312304 -0.056713428 0.43700001
0.081073552 -0.056713428 0.43700001
0.081834808 -0.056713428 0.43700001
0.08278507 -0.056843206 0.43800002
0.083738819 -0.056972984 0.43900001
0.084503554 -0.056972984 0.43900001
0.085462525 -0.057102762 0.44000003
0.086229004 -0.057102762 0.44000003
0.086995482 -0.057102762 0.44000003
0.087961428 -0.057232544 0.44100001
0.08872965 -0.057232544 0.44100001
0.089700811 -0.057362322 0.44200003
0.090470776 -0.057362322 0.44200003
0.091447167 -0.0574921 0.44300002
0.092427045 -0.057621881 0.44400004
0.09320049 -0.057621881 0.44400004
0.093973935 -0.057621881 0.44400004
0.094960779 -0.057751659 0.44500002
0.095735975 -0.057751659 0.44500002
0.096728042 -0.057881437 0.44600001
0.097723596 -0.058011215 0.44700003
0.098502263 -0.058011215 0.44700003
0.099503048 -0.058140997 0.44800001
0.10028346 -0.058140997 0.44800001
0.10106388 -0.058140997 0.44800001
0.1018443 -0.058140997 0.44800001
0.074637733 -0.056848433 0.44400004
0.075241342 -0.056720395 0.44300002
0.075841457 -0.056592356 0.44200003
0.076611422 -0.056592356 0.44200003
0.077206314 -0.056464322 0.44100001
0.077620909 -0.056208245 0.43900001
0.078385651 -0.056208245 0.43900001
0.07897009 -0.056080211 0.43800002
0.079733089 -0.056080211 0.43800002
0.08049608 -0.056080211 0.43800002
0.081259079 -0.056080211 0.43800002
0.082022078 -0.056080211 0.43800002
0.082974076 -0.056208245 0.43900001
0.083738819 -0.056208245 0.43900001
0.084696047 -0.056336284 0.44000003
0.085462525 -0.056336284 0.44000003
0.086229004 -0.056336284 0.44000003
0.087193206 -0.056464322 0.44100001
0.087961428 -0.056464322 0.44100001
0.088930845 -0.056592356 0.44200003
0.089903757 -0.056720395 0.44300002
0.090675458 -0.056720395 0.44300002
0.091653593 -0.056848433 0.44400004
0.092427045 -0.056848433 0.44400004
0.093410403 -0.056976467 0.44500002
0.094185591 -0.056976467 0.44500002
0.094960779 -0.056976467 0.44500002
0.09595111 -0.057104506 0.44600001
0.096728042 -0.057104506 0.44600001
0.097723596 -0.057232544 0.44700003
0.098722629 -0.057360578 0.44800001
0.099503048 -0.057360578 0.44800001
0.10028346 -0.057360578 0.44800001
0.10128947 -0.057488617 0.44900003
0.10207163 -0.057488617 0.44900003
0.073090844 -0.056074984 0.44400004
0.073864289 -0.056074984 0.44400004
0.074637733 -0.056074984 0.44400004
0.075241342 -0.05594869 0.44300002
0.076013044 -0.05594869 0.44300002
0.076611422 -0.055822395 0.44200003
0.077206314 -0.0556961 0.44100001
0.077797726 -0.055569805 0.44000003
0.078385651 -0.055443507 0.43900001
0.079150386 -0.055443507 0.43900001
0.079733089 -0.055317212 0.43800002
0.08049608 -0.055317212 0.43800002
0.081444599 -0.055443507 0.43900001
0.082209341 -0.055443507 0.43900001
0.082974076 -0.055443507 0.43900001
0.083929569 -0.055569805 0.44000003
0.084696047 -0.055569805 0.44000003
0.085656755 -0.0556961 0.44100001
0.086424984 -0.0556961 0.44100001
0.087193206 -0.0556961 0.44100001
0.08816088 -0.055822395 0.44200003
0.089132048 -0.05594869 0.44300002
0.090106696 -0.056074984 0.44400004
0.090880148 -0.056074984 0.44400004
0.091653593 -0.056074984 0.44400004
0.092635214 -0.056201279 0.44500002
0.093410403 -0.056201279 0.44500002
0.094185591 -0.056201279 0.44500002
0.094960779 -0.056201279 0.44500002
0.09595111 -0.056327574 0.44600001
0.096728042 -0.056327574 0.44600001
0.097942211 -0.056580164 0.44800001
0.098722629 -0.056580164 0.44800001
0.09972515 -0.056706458 0.44900003
0.10050731 -0.056706458 0.44900003
0.10128947 -0.056706458 0.44900003
0.071248673 -0.055675194 0.44700003
0.073255457 -0.055426087 0.44500002
0.073864289 -0.055301536 0.44400004
0.074637733 -0.055301536 0.44400004
0.075411186 -0.055301536 0.44400004
0.076013044 -0.055176981 0.44300002
0.076611422 -0.055052429 0.44200003
0.077206314 -0.054927878 0.44100001
0.077797726 -0.054803323 0.44000003
0.078564204 -0.054803323 0.44000003
0.079150386 -0.054678772 0.43900001
0.079915129 -0.054678772 0.43900001
0.080679864 -0.054678772 0.43900001
0.081444599 -0.054678772 0.43900001
0.082209341 -0.054678772 0.43900001
0.083163083 -0.054803323 0.44000003
0.083929569 -0.054803323 0.44000003
0.084888533 -0.054927878 0.44100001
0.085656755 -0.054927878 0.44100001
0.086424984 -0.054927878 0.44100001
0.087390922 -0.055052429 0.44200003
0.088559799 -0.055301536 0.44400004
0.089333251 -0.055301536 0.44400004
0.090106696 -0.055301536 0.44400004
0.09108483 -0.055426087 0.44500002
0.091860019 -0.055426087 0.44500002
0.092635214 -0.055426087 0.44500002
0.093410403 -0.055426087 0.44500002
0.094185591 -0.055426087 0.44500002
0.095387571 -0.055675194 0.44700003
0.09595111 -0.055550642 0.44600001
0.096728042 -0.055550642 0.44600001
0.098160833 -0.0559243 0.44900003
0.099163353 -0.056048855 0.45000002
0.099947259 -0.056048855 0.45000002
0.100955 -0.056173407 0.45100003
0.10174064 -0.056173407 0.45100003
0.10252628 -0.056173407 0.45100003
0.071248673 -0.054896519 0.44700003
0.072027348 -0.054896519 0.44700003
0.072480269 -0.054650899 0.44500002
0.073255457 -0.054650899 0.44500002
0.073864289 -0.054528087 0.44400004
0.074637733 -0.054528087 0.44400004
0.075411186 -0.054528087 0.44400004
0.076013044 -0.054405276 0.44300002
0.076611422 -0.054282464 0.44200003
0.077206314 -0.054159656 0.44100001
0.077797726 -0.054036845 0.44000003
0.078564204 -0.054036845 0.44000003
0.079150386 -0.053914033 0.43900001
0.079915129 -0.053914033 0.43900001
0.080679864 -0.053914033 0.43900001
0.081444599 -0.053914033 0.43900001
0.082396604 -0.054036845 0.44000003
0.083163083 -0.054036845 0.44000003
0.084120311 -0.054159656 0.44100001
0.084888533 -0.054159656 0.44100001
0.085656755 -0.054159656 0.44100001
0.086620957 -0.054282464 0.44200003
0.087588638 -0.054405276 0.44300002
0.088559799 -0.054528087 0.44400004
0.089534454 -0.054650899 0.44500002
0.090309642 -0.054650899 0.44500002
0.09108483 -0.054650899 0.44500002
0.091860019 -0.054650899 0.44500002
0.092635214 -0.054650899 0.44500002
0.093410403 -0.054650899 0.44500002
0.094608895 -0.054896519 0.44700003
0.095600963 -0.05501933 0.44800001
0.096381381 -0.05501933 0.44800001
0.097378679 -0.055142142 0.44900003
0.098598078 -0.055387765 0.45100003
0.099383719 -0.055387765 0.45100003
0.10016936 -0.055387765 0.45100003
0.100955 -0.055387765 0.45100003
0.10196623 -0.055510577 0.45200002
0.10252628 -0.055387765 0.45100003
0.10331193 -0.055387765 0.45100003
0.10432839 -0.055510577 0.45200002
0.070469998 -0.054117847 0.44700003
0.071089283 -0.053996779 0.44600001
0.071866214 -0.053996779 0.44600001
0.072806023 -0.054117847 0.44700003
0.073255457 -0.053875707 0.44500002
0.074030653 -0.053875707 0.44500002
0.074805841 -0.053875707 0.44500002
0.075411186 -0.053754639 0.44400004
0.07618463 -0.053754639 0.44400004
0.076611422 -0.053512502 0.44200003
0.077206314 -0.053391431 0.44100001
0.077974536 -0.053391431 0.44100001
0.078564204 -0.053270362 0.44000003
0.079330683 -0.053270362 0.44000003
0.080097169 -0.053270362 0.44000003
0.080863647 -0.053270362 0.44000003
0.081630126 -0.053270362 0.44000003
0.082583867 -0.053391431 0.44100001
0.083352089 -0.053391431 0.44100001
0.084120311 -0.053391431 0.44100001
0.085081026 -0.053512502 0.44200003
0.085850991 -0.053512502 0.44200003
0.087012902 -0.053754639 0.44400004
0.087786354 -0.053754639 0.44400004
0.088759258 -0.053875707 0.44500002
0.089534454 -0.053875707 0.44500002
0.090309642 -0.053875707 0.44500002
0.09108483 -0.053875707 0.44500002
0.091860019 -0.053875707 0.44500002
0.092635214 -0.053875707 0.44500002
0.093620315 -0.053996779 0.44600001
0.094820552 -0.054238915 0.44800001
0.095600963 -0.054238915 0.44800001
0.096596517 -0.054359984 0.44900003
0.097812437 -0.054602124 0.45100003
0.098598078 -0.054602124 0.45100003
0.099604085 -0.054723192 0.45200002
0.10039147 -0.054723192 0.45200002
0.10117885 -0.054723192 0.45200002
0.10196623 -0.054723192 0.45200002
0.10275362 -0.054723192 0.45200002
0.103541 -0.054723192 0.45200002
0.10432839 -0.054723192 0.45200002
0.070469998 -0.053339172 0.44700003
0.071089283 -0.053219844 0.44600001
0.071866214 -0.053219844 0.44600001
0.072806023 -0.053339172 0.44700003
0.073420078 -0.053219844 0.44600001
0.074030653 -0.053100519 0.44500002
0.074805841 -0.053100519 0.44500002
0.075581029 -0.053100519 0.44500002
0.07618463 -0.05298119 0.44400004
0.076784752 -0.052861866 0.44300002
0.077381387 -0.052742537 0.44200003
0.077974536 -0.052623209 0.44100001
0.078742757 -0.052623209 0.44100001
0.079330683 -0.052503884 0.44000003
0.080097169 -0.052503884 0.44000003
0.080863647 -0.052503884 0.44000003
0.081815645 -0.052623209 0.44100001
0.082583867 -0.052623209 0.44100001
0.083352089 -0.052623209 0.44100001
0.084311061 -0.052742537 0.44200003
0.085081026 -0.052742537 0.44200003
0.086045228 -0.052861866 0.44300002
0.087012902 -0.05298119 0.44400004
0.08798407 -0.053100519 0.44500002
0.088759258 -0.053100519 0.44500002
0.089534454 -0.053100519 0.44500002
0.090309642 -0.053100519 0.44500002
0.091289513 -0.053219844 0.44600001
0.092066444 -0.053219844 0.44600001
0.093259715 -0.053458501 0.44800001
0.094040133 -0.053458501 0.44800001
0.0950322 -0.053577825 0.44900003
0.095814362 -0.053577825 0.44900003
0.09681166 -0.053697154 0.45000002
0.097812437 -0.053816479 0.45100003
0.0988167 -0.053935807 0.45200002
0.099604085 -0.053935807 0.45200002
0.10039147 -0.053935807 0.45200002
0.10117885 -0.053935807 0.45200002
0.10196623 -0.053935807 0.45200002
0.071248673 -0.052560497 0.44700003
0.071866214 -0.052442912 0.44600001
0.072806023 -0.052560497 0.44700003
0.073420078 -0.052442912 0.44600001
0.074030653 -0.052325327 0.44500002
0.074805841 -0.052325327 0.44500002
0.075581029 -0.052325327 0.44500002
0.07618463 -0.052207742 0.44400004
0.076958083 -0.052207742 0.44400004
0.077381387 -0.051972572 0.44200003
0.078151353 -0.051972572 0.44200003
0.078742757 -0.051854987 0.44100001
0.079510979 -0.051854987 0.44100001
0.080279201 -0.051854987 0.44100001
0.081047423 -0.051854987 0.44100001
0.081815645 -0.051854987 0.44100001
0.082771137 -0.051972572 0.44200003
0.083541103 -0.051972572 0.44200003
0.084311061 -0.051972572 0.44200003
0.085273519 -0.052090157 0.44300002
0.086239457 -0.052207742 0.44400004
0.087208882 -0.052325327 0.44500002
0.08798407 -0.052325327 0.44500002
0.088759258 -0.052325327 0.44500002
0.089534454 -0.052325327 0.44500002
0.090512581 -0.052442912 0.44600001
0.091289513 -0.052442912 0.44600001
0.092479303 -0.052678082 0.44800001
0.093259715 -0.052678082 0.44800001
0.094250046 -0.052795667 0.44900003
0.0950322 -0.052795667 0.44900003
0.095814362 -0.052795667 0.44900003
0.097241931 -0.053148422 0.45200002
0.098029315 -0.053148422 0.45200002
0.0988167 -0.053148422 0.45200002
0.099604085 -0.053148422 0.45200002
0.10039147 -0.053148422 0.45200002
0.10117885 -0.053148422 0.45200002
0.10219182 -0.053266007 0.45300001
0.10320828 -0.053383593 0.45400003
0.072027348 -0.051781826 0.44700003
0.072806023 -0.051781826 0.44700003
0.073420078 -0.05166598 0.44600001
0.074030653 -0.051550139 0.44500002
0.074805841 -0.051550139 0.44500002
0.075581029 -0.051550139 0.44500002
0.07618463 -0.051434293 0.44400004
0.076958083 -0.051434293 0.44400004
0.077556461 -0.051318452 0.44300002
0.078151353 -0.05120261 0.44200003
0.078921318 -0.05120261 0.44200003
0.079691276 -0.05120261 0.44200003
0.080461241 -0.05120261 0.44200003
0.081231207 -0.05120261 0.44200003
0.082001172 -0.05120261 0.44200003
0.082771137 -0.05120261 0.44200003
0.083541103 -0.05120261 0.44200003
0.08450181 -0.051318452 0.44300002
0.085466012 -0.051434293 0.44400004
0.086239457 -0.051434293 0.44400004
0.087208882 -0.051550139 0.44500002
0.08798407 -0.051550139 0.44500002
0.088759258 -0.051550139 0.44500002
0.08973565 -0.05166598 0.44600001
0.090512581 -0.05166598 0.44600001
0.091494203 -0.051781826 0.44700003
0.092479303 -0.051897667 0.44800001
0.093467884 -0.052013509 0.44900003
0.094250046 -0.052013509 0.44900003
0.095243856 -0.052129354 0.45000002
0.096241154 -0.052245196 0.45100003
0.097241931 -0.052361038 0.45200002
0.098029315 -0.052361038 0.45200002
0.0988167 -0.052361038 0.45200002
0.099604085 -0.052361038 0.45200002
0.10061357 -0.052476883 0.45300001
0.1014027 -0.052476883 0.45300001
0.10241741 -0.052592725 0.45400003
0.10343561 -0.05270857 0.45500001
0.071866214 -0.050889049 0.44600001
0.0729689 -0.051117253 0.44800001
0.073584698 -0.051003151 0.44700003
0.074030653 -0.050774947 0.44500002
0.074805841 -0.050774947 0.44500002
0.075581029 -0.050774947 0.44500002
0.076356217 -0.050774947 0.44500002
0.076958083 -0.050660849 0.44400004
0.077556461 -0.050546747 0.44300002
0.078328162 -0.050546747 0.44300002
0.078921318 -0.050432645 0.44200003
0.079691276 -0.050432645 0.44200003
0.080461241 -0.050432645 0.44200003
0.081231207 -0.050432645 0.44200003
0.082186691 -0.050546747 0.44300002
0.0829584 -0.050546747 0.44300002
0.083919115 -0.050660849 0.44400004
0.08469256 -0.050660849 0.44400004
0.085466012 -0.050660849 0.44400004
0.086433694 -0.050774947 0.44500002
0.087208882 -0.050774947 0.44500002
0.08798407 -0.050774947 0.44500002
0.088958718 -0.050889049 0.44600001
0.08973565 -0.050889049 0.44600001
0.090715528 -0.051003151 0.44700003
0.091698885 -0.051117253 0.44800001
0.092479303 -0.051117253 0.44800001
0.093467884 -0.051231351 0.44900003
0.094459958 -0.051345453 0.45000002
0.095243856 -0.051345453 0.45000002
0.096454546 -0.051573656 0.45200002
0.097241931 -0.051573656 0.45200002
0.098029315 -0.051573656 0.45200002
0.0988167 -0.051573656 0.45200002
0.099824443 -0.051687755 0.45300001
0.10061357 -0.051687755 0.45300001
0.10185039 -0.051915959 0.45500001
0.10286859 -0.05203006 0.45600003
0.10343561 -0.051915959 0.45500001
0.1044573 -0.05203006 0.45600003
0.0729689 -0.050336834 0.44800001
0.073584698 -0.050224476 0.44700003
0.074197009 -0.050112117 0.44600001
0.074973941 -0.050112117 0.44600001
0.075581029 -0.049999759 0.44500002
0.076356217 -0.049999759 0.44500002
0.076958083 -0.0498874 0.44400004
0.077731527 -0.0498874 0.44400004
0.07850498 -0.0498874 0.44400004
0.079099871 -0.049775042 0.44300002
0.079871573 -0.049775042 0.44300002
0.080643281 -0.049775042 0.44300002
0.08141499 -0.049775042 0.44300002
0.082372218 -0.0498874 0.44400004
0.083145663 -0.0498874 0.44400004
0.083919115 -0.0498874 0.44400004
0.08488331 -0.049999759 0.44500002
0.085658498 -0.049999759 0.44500002
0.086433694 -0.049999759 0.44500002
0.087404855 -0.050112117 0.44600001
0.088181786 -0.050112117 0.44600001
0.089158177 -0.050224476 0.44700003
0.089936852 -0.050224476 0.44700003
0.090918466 -0.050336834 0.44800001
0.091903567 -0.050449193 0.44900003
0.092685729 -0.050449193 0.44900003
0.093467884 -0.050449193 0.44900003
0.094669864 -0.050673913 0.45100003
0.095667161 -0.050786272 0.45200002
0.096454546 -0.050786272 0.45200002
0.097457066 -0.05089863 0.45300001
0.098246194 -0.05089863 0.45300001
0.099253938 -0.051010989 0.45400003
0.10004481 -0.051010989 0.45400003
0.10105778 -0.051123347 0.45500001
0.10185039 -0.051123347 0.45500001
0.10286859 -0.051235706 0.45600003
0.10366295 -0.051235706 0.45600003
0.1044573 -0.051235706 0.45600003
0.073749319 -0.049556419 0.44800001
0.07452973 -0.049556419 0.44800001
0.075142048 -0.0494458 0.44700003
0.075750872 -0.049335185 0.44600001
0.076356217 -0.049224567 0.44500002
0.077131413 -0.049224567 0.44500002
0.077731527 -0.049113952 0.44400004
0.07850498 -0.049113952 0.44400004
0.079278424 -0.049113952 0.44400004
0.080051877 -0.049113952 0.44400004
0.080825321 -0.049113952 0.44400004
0.081598766 -0.049113952 0.44400004
0.082372218 -0.049113952 0.44400004
0.083145663 -0.049113952 0.44400004
0.084108122 -0.049224567 0.44500002
0.08488331 -0.049224567 0.44500002
0.085850991 -0.049335185 0.44600001
0.086627923 -0.049335185 0.44600001
0.087404855 -0.049335185 0.44600001
0.088379502 -0.0494458 0.44700003
0.089357637 -0.049556419 0.44800001
0.090138055 -0.049556419 0.44800001
0.091121413 -0.049667034 0.44900003
0.091903567 -0.049667034 0.44900003
0.092892155 -0.049777653 0.45000002
0.093676053 -0.049777653 0.45000002
0.094879776 -0.049998887 0.45200002
0.095878817 -0.050109506 0.45300001
0.096667938 -0.050109506 0.45300001
0.097672202 -0.050220121 0.45400003
0.098463073 -0.050220121 0.45400003
0.099253938 -0.050220121 0.45400003
0.10026517 -0.050330739 0.45500001
0.10105778 -0.050330739 0.45500001
0.10207424 -0.050441355 0.45600003
0.10286859 -0.050441355 0.45600003
0.10366295 -0.050441355 0.45600003
0.1044573 -0.050441355 0.45600003
0.073913939 -0.04888488 0.44900003
0.07452973 -0.048776004 0.44800001
0.075310148 -0.048776004 0.44800001
0.075750872 -0.048558254 0.44600001
0.076527804 -0.048558254 0.44600001
0.077131413 -0.048449378 0.44500002
0.077906601 -0.048449378 0.44500002
0.078681789 -0.048449378 0.44500002
0.079278424 -0.048340503 0.44400004
0.080051877 -0.048340503 0.44400004
0.080825321 -0.048340503 0.44400004
0.081598766 -0.048340503 0.44400004
0.082557738 -0.048449378 0.44500002
0.083332933 -0.048449378 0.44500002
0.084108122 -0.048449378 0.44500002
0.08507406 -0.048558254 0.44600001
0.085850991 -0.048558254 0.44600001
0.08682216 -0.048667129 0.44700003
0.087796807 -0.048776004 0.44800001
0.088577218 -0.048776004 0.44800001
0.089357637 -0.048776004 0.44800001
0.090339258 -0.04888488 0.44900003
0.091527298 -0.049102627 0.45100003
0.092312939 -0.049102627 0.45100003
0.093098581 -0.049102627 0.45100003
0.094092391 -0.049211502 0.45200002
0.094879776 -0.049211502 0.45200002
0.096090466 -0.049429253 0.45400003
0.096881337 -0.049429253 0.45400003
0.097672202 -0.049429253 0.45400003
0.098463073 -0.049429253 0.45400003
0.09947256 -0.049538128 0.45500001
0.10026517 -0.049538128 0.45500001
0.10127988 -0.049647003 0.45600003
0.10207424 -0.049647003 0.45600003
0.10286859 -0.049647003 0.45600003
0.10389027 -0.049755879 0.45700002
0.10468636 -0.049755879 0.45700002
0.073913939 -0.048102722 0.44900003
0.074696094 -0.048102722 0.44900003
0.075310148 -0.047995586 0.44800001
0.075920723 -0.047888454 0.44700003
0.076527804 -0.047781322 0.44600001
0.077131413 -0.047674187 0.44500002
0.077906601 -0.047674187 0.44500002
0.078681789 -0.047674187 0.44500002
0.079456978 -0.047674187 0.44500002
0.080051877 -0.047567055 0.44400004
0.080825321 -0.047567055 0.44400004
0.08178255 -0.047674187 0.44500002
0.082557738 -0.047674187 0.44500002
0.083332933 -0.047674187 0.44500002
0.084108122 -0.047674187 0.44500002
0.08507406 -0.047781322 0.44600001
0.086043485 -0.047888454 0.44700003
0.087016389 -0.047995586 0.44800001
0.087796807 -0.047995586 0.44800001
0.088577218 -0.047995586 0.44800001
0.089557096 -0.048102722 0.44900003
0.090540454 -0.048209853 0.45000002
0.091527298 -0.048316985 0.45100003
0.092312939 -0.048316985 0.45100003
0.093305007 -0.048424117 0.45200002
0.094092391 -0.048424117 0.45200002
0.095089689 -0.048531253 0.45300001
0.096090466 -0.048638385 0.45400003
0.096881337 -0.048638385 0.45400003
0.097887345 -0.048745517 0.45500001
0.098679952 -0.048745517 0.45500001
0.099691182 -0.048852652 0.45600003
0.10048553 -0.048852652 0.45600003
0.10150199 -0.048959784 0.45700002
0.10229809 -0.048959784 0.45700002
0.10309418 -0.048959784 0.45700002
0.10389027 -0.048959784 0.45700002
0.10468636 -0.048959784 0.45700002
0.072523817 -0.047952909 0.45500001
0.073316433 -0.047952909 0.45500001
0.073783286 -0.047742125 0.45300001
0.074572414 -0.047742125 0.45300001
0.074862458 -0.047425952 0.45000002
0.075646356 -0.047425952 0.45000002
0.075920723 -0.047109779 0.44700003
0.076527804 -0.047004391 0.44600001
0.077304736 -0.047004391 0.44600001
0.077906601 -0.046898998 0.44500002
0.078681789 -0.046898998 0.44500002
0.079456978 -0.046898998 0.44500002
0.080232173 -0.046898998 0.44500002
0.081007361 -0.046898998 0.44500002
0.08178255 -0.046898998 0.44500002
0.082557738 -0.046898998 0.44500002
0.083520196 -0.047004391 0.44600001
0.084297128 -0.047004391 0.44600001
0.085264809 -0.047109779 0.44700003
0.08623597 -0.047215171 0.44800001
0.087016389 -0.047215171 0.44800001
0.08799278 -0.047320563 0.44900003
0.088774942 -0.047320563 0.44900003
0.089557096 -0.047320563 0.44900003
0.090741657 -0.047531344 0.45100003
0.091730244 -0.047636736 0.45200002
0.092517629 -0.047636736 0.45200002
0.093305007 -0.047636736 0.45200002
0.09450873 -0.047847517 0.45400003
0.095299602 -0.047847517 0.45400003
0.096302122 -0.047952909 0.45500001
0.09709473 -0.047952909 0.45500001
0.097887345 -0.047952909 0.45500001
0.098896831 -0.048058297 0.45600003
0.099691182 -0.048058297 0.45600003
0.1007059 -0.04816369 0.45700002
0.10150199 -0.04816369 0.45700002
0.10229809 -0.04816369 0.45700002
0.10309418 -0.04816369 0.45700002
0.10389027 -0.04816369 0.45700002
0.10468636 -0.04816369 0.45700002
0.072523817 -0.047160298 0.45500001
0.073155291 -0.047056649 0.45400003
0.073783286 -0.046953 0.45300001
0.074572414 -0.046953 0.45300001
0.075028814 -0.046745703 0.45100003
0.075478248 -0.046538405 0.44900003
0.076090567 -0.046434756 0.44800001
0.076870978 -0.046434756 0.44800001
0.077478066 -0.046331108 0.44700003
0.078081667 -0.046227455 0.44600001
0.078858607 -0.046227455 0.44600001
0.079635538 -0.046227455 0.44600001
0.080232173 -0.046123806 0.44500002
0.081189401 -0.046227455 0.44600001
0.081966333 -0.046227455 0.44600001
0.082743265 -0.046227455 0.44600001
0.083707459 -0.046331108 0.44700003
0.084675141 -0.046434756 0.44800001
0.085455559 -0.046434756 0.44800001
0.086428463 -0.046538405 0.44900003
0.087210625 -0.046538405 0.44900003
0.088188753 -0.046642054 0.45000002
0.089170374 -0.046745703 0.45100003
0.089956015 -0.046745703 0.45100003
0.09094286 -0.046849351 0.45200002
0.091730244 -0.046849351 0.45200002
0.092517629 -0.046849351 0.45200002
0.09351144 -0.046953 0.45300001
0.09450873 -0.047056649 0.45400003
0.095299602 -0.047056649 0.45400003
0.096302122 -0.047160298 0.45500001
0.09709473 -0.047160298 0.45500001
0.09810248 -0.047263946 0.45600003
0.098896831 -0.047263946 0.45600003
0.099909805 -0.047367595 0.45700002
0.1007059 -0.047367595 0.45700002
0.10150199 -0.047367595 0.45700002
0.10229809 -0.047367595 0.45700002
0.10309418 -0.047367595 0.45700002
0.1041176 -0.047471244 0.45800003
0.10468636 -0.047367595 0.45700002
0.072523817 -0.046367686 0.45500001
0.073155291 -0.046265781 0.45400003
0.073783286 -0.046163876 0.45300001
0.074572414 -0.046163876 0.45300001
0.075028814 -0.045960061 0.45100003
0.075646356 -0.045858152 0.45000002
0.076090567 -0.045654338 0.44800001
0.076870978 -0.045654338 0.44800001
0.077478066 -0.045552433 0.44700003
0.078256741 -0.045552433 0.44700003
0.079035416 -0.045552433 0.44700003
0.079635538 -0.045450523 0.44600001
0.08041247 -0.045450523 0.44600001
0.081189401 -0.045450523 0.44600001
0.081966333 -0.045450523 0.44600001
0.082928784 -0.045552433 0.44700003
0.083894722 -0.045654338 0.44800001
0.084675141 -0.045654338 0.44800001
0.085646309 -0.045756247 0.44900003
0.086428463 -0.045756247 0.44900003
0.087404855 -0.045858152 0.45000002
0.088384733 -0.045960061 0.45100003
0.089170374 -0.045960061 0.45100003
0.089956015 -0.045960061 0.45100003
0.09094286 -0.046061967 0.45200002
0.091933183 -0.046163876 0.45300001
0.092722312 -0.046163876 0.45300001
0.093717866 -0.046265781 0.45400003
0.09450873 -0.046265781 0.45400003
0.095509514 -0.046367686 0.45500001
0.096302122 -0.046367686 0.45500001
0.097308129 -0.046469595 0.45600003
0.098317616 -0.046571501 0.45700002
0.09911371 -0.046571501 0.45700002
0.099909805 -0.046571501 0.45700002
0.1007059 -0.046571501 0.45700002
0.10150199 -0.046571501 0.45700002
0.10252193 -0.04667341 0.45800003
0.10331977 -0.04667341 0.45800003
0.1041176 -0.04667341 0.45800003
0.072523817 -0.045575079 0.45500001
