# .PCD v0.7 - Point Cloud Data file format
VERSION 0.7
FIELDS x y z
SIZE 4 4 4
TYPE F F F
COUNT 1 1 1
WIDTH 1339
HEIGHT 1
VIEWPOINT 0 0 0 1 0 0 0
POINTS 1339
DATA ascii
0.071064897 -0.079635538 0.41000003
0.071779117 -0.079635538 0.41000003
0.07231652 -0.079441302 0.40900001
0.073207557 -0.079635538 0.41000003
0.073921777 -0.079635538 0.41000003
0.074635997 -0.079635538 0.41000003
0.075350218 -0.079635538 0.41000003
0.076064438 -0.079635538 0.41000003
0.076778658 -0.079635538 0.41000003
0.077492878 -0.079635538 0.41000003
0.078207098 -0.079635538 0.41000003
0.078921318 -0.079635538 0.41000003
0.079441302 -0.079441302 0.40900001
0.080153778 -0.079441302 0.40900001
0.080866255 -0.079441302 0.40900001
0.081578739 -0.079441302 0.40900001
0.082492419 -0.079635538 0.41000003
0.083206639 -0.079635538 0.41000003
0.083920859 -0.079635538 0.41000003
0.084635079 -0.079635538 0.41000003
0.085349299 -0.079635538 0.41000003
0.086063512 -0.079635538 0.41000003
0.086566083 -0.079441302 0.40900001
0.08727856 -0.079441302 0.40900001
0.087991036 -0.079441302 0.40900001
0.059066869 -0.079113804 0.41100001
0.059782829 -0.079113804 0.41100001
0.060498793 -0.079113804 0.41100001
0.061214756 -0.079113804 0.41100001
0.061930716 -0.079113804 0.41100001
0.06264668 -0.079113804 0.41100001
0.063362643 -0.079113804 0.41100001
0.064078607 -0.079113804 0.41100001
0.064794563 -0.079113804 0.41100001
0.065510526 -0.079113804 0.41100001
0.06622649 -0.079113804 0.41100001
0.066942453 -0.079113804 0.41100001
0.067658417 -0.079113804 0.41100001
0.068374373 -0.079113804 0.41100001
0.069090337 -0.079113804 0.41100001
0.0698063 -0.079113804 0.41100001
0.070522264 -0.079113804 0.41100001
0.07123822 -0.079113804 0.41100001
0.071779117 -0.078921318 0.41000003
0.072493337 -0.078921318 0.41000003
0.073207557 -0.078921318 0.41000003
0.074102074 -0.079113804 0.41100001
0.07481803 -0.079113804 0.41100001
0.075350218 -0.078921318 0.41000003
0.076064438 -0.078921318 0.41000003
0.076778658 -0.078921318 0.41000003
0.077492878 -0.078921318 0.41000003
0.078207098 -0.078921318 0.41000003
0.078921318 -0.078921318 0.41000003
0.079635538 -0.078921318 0.41000003
0.080349758 -0.078921318 0.41000003
0.081063978 -0.078921318 0.41000003
0.081778198 -0.078921318 0.41000003
0.082492419 -0.078921318 0.41000003
0.083206639 -0.078921318 0.41000003
0.083920859 -0.078921318 0.41000003
0.084635079 -0.078921318 0.41000003
0.085349299 -0.078921318 0.41000003
0.086063512 -0.078921318 0.41000003
0.086777732 -0.078921318 0.41000003
0.087491952 -0.078921318 0.41000003
0.088206172 -0.078921318 0.41000003
0.059782829 -0.07839784 0.41100001
0.060498793 -0.07839784 0.41100001
0.061214756 -0.07839784 0.41100001
0.061930716 -0.07839784 0.41100001
0.062799104 -0.07858859 0.41200003
0.063516811 -0.07858859 0.41200003
0.06423451 -0.07858859 0.41200003
0.064794563 -0.07839784 0.41100001
0.065510526 -0.07839784 0.41100001
0.066387624 -0.07858859 0.41200003
0.066942453 -0.07839784 0.41100001
0.067658417 -0.07839784 0.41100001
0.068374373 -0.07839784 0.41100001
0.069090337 -0.07839784 0.41100001
0.0698063 -0.07839784 0.41100001
0.070522264 -0.07839784 0.41100001
0.07123822 -0.07839784 0.41100001
0.071954183 -0.07839784 0.41100001
0.072670147 -0.07839784 0.41100001
0.07338611 -0.07839784 0.41100001
0.074102074 -0.07839784 0.41100001
0.07481803 -0.07839784 0.41100001
0.075533994 -0.07839784 0.41100001
0.076249957 -0.07839784 0.41100001
0.076965921 -0.07839784 0.41100001
0.077681884 -0.07839784 0.41100001
0.07839784 -0.07839784 0.41100001
0.079113804 -0.07839784 0.41100001
0.079829767 -0.07839784 0.41100001
0.080349758 -0.078207098 0.41000003
0.081063978 -0.078207098 0.41000003
0.081778198 -0.078207098 0.41000003
0.082492419 -0.078207098 0.41000003
0.083409578 -0.07839784 0.41100001
0.084125541 -0.07839784 0.41100001
0.084841505 -0.07839784 0.41100001
0.085349299 -0.078207098 0.41000003
0.086063512 -0.078207098 0.41000003
0.086777732 -0.078207098 0.41000003
0.087491952 -0.078207098 0.41000003
0.059210584 -0.07787089 0.41200003
0.059928287 -0.07787089 0.41200003
0.06064599 -0.07787089 0.41200003
0.061363697 -0.07787089 0.41200003
0.0620814 -0.07787089 0.41200003
0.062799104 -0.07787089 0.41200003
0.063516811 -0.07787089 0.41200003
0.064390421 -0.078059897 0.41300002
0.065109864 -0.078059897 0.41300002
0.065669917 -0.07787089 0.41200003
0.066387624 -0.07787089 0.41200003
0.067105331 -0.07787089 0.41200003
0.06782303 -0.07787089 0.41200003
0.068374373 -0.077681884 0.41100001
0.069090337 -0.077681884 0.41100001
0.0698063 -0.077681884 0.41100001
0.070522264 -0.077681884 0.41100001
0.07123822 -0.077681884 0.41100001
0.071954183 -0.077681884 0.41100001
0.072670147 -0.077681884 0.41100001
0.07338611 -0.077681884 0.41100001
0.074102074 -0.077681884 0.41100001
0.07481803 -0.077681884 0.41100001
0.075533994 -0.077681884 0.41100001
0.076249957 -0.077681884 0.41100001
0.076965921 -0.077681884 0.41100001
0.077681884 -0.077681884 0.41100001
0.07839784 -0.077681884 0.41100001
0.079113804 -0.077681884 0.41100001
0.079829767 -0.077681884 0.41100001
0.080545731 -0.077681884 0.41100001
0.081261694 -0.077681884 0.41100001
0.081977651 -0.077681884 0.41100001
0.082693614 -0.077681884 0.41100001
0.083409578 -0.077681884 0.41100001
0.084125541 -0.077681884 0.41100001
0.084841505 -0.077681884 0.41100001
0.085557461 -0.077681884 0.41100001
0.086273424 -0.077681884 0.41100001
0.086989388 -0.077681884 0.41100001
0.087705351 -0.077681884 0.41100001
0.05849288 -0.077153184 0.41200003
0.059210584 -0.077153184 0.41200003
0.059928287 -0.077153184 0.41200003
0.06064599 -0.077153184 0.41200003
0.061363697 -0.077153184 0.41200003
0.062232085 -0.077340446 0.41300002
0.062951528 -0.077340446 0.41300002
0.063670978 -0.077340446 0.41300002
0.064390421 -0.077340446 0.41300002
0.065109864 -0.077340446 0.41300002
0.065669917 -0.077153184 0.41200003
0.066548757 -0.077340446 0.41300002
0.067268208 -0.077340446 0.41300002
0.067987651 -0.077340446 0.41300002
0.068540737 -0.077153184 0.41200003
0.069258444 -0.077153184 0.41200003
0.069976144 -0.077153184 0.41200003
0.070693851 -0.077153184 0.41200003
0.07141155 -0.077153184 0.41200003
0.072129257 -0.077153184 0.41200003
0.072846964 -0.077153184 0.41200003
0.073564664 -0.077153184 0.41200003
0.074282371 -0.077153184 0.41200003
0.07500007 -0.077153184 0.41200003
0.075717777 -0.077153184 0.41200003
0.076435484 -0.077153184 0.41200003
0.077153184 -0.077153184 0.41200003
0.07787089 -0.077153184 0.41200003
0.07858859 -0.077153184 0.41200003
0.079306297 -0.077153184 0.41200003
0.080024004 -0.077153184 0.41200003
0.080545731 -0.076965921 0.41100001
0.081261694 -0.076965921 0.41100001
0.081977651 -0.076965921 0.41100001
0.082693614 -0.076965921 0.41100001
0.083409578 -0.076965921 0.41100001
0.084125541 -0.076965921 0.41100001
0.084841505 -0.076965921 0.41100001
0.085557461 -0.076965921 0.41100001
0.086273424 -0.076965921 0.41100001
0.086989388 -0.076965921 0.41100001
0.087705351 -0.076965921 0.41100001
0.059354298 -0.076621003 0.41300002
0.060073745 -0.076621003 0.41300002
0.060793191 -0.076621003 0.41300002
0.061512638 -0.076621003 0.41300002
0.062232085 -0.076621003 0.41300002
0.062951528 -0.076621003 0.41300002
0.063670978 -0.076621003 0.41300002
0.064390421 -0.076621003 0.41300002
0.065109864 -0.076621003 0.41300002
0.065829314 -0.076621003 0.41300002
0.066548757 -0.076621003 0.41300002
0.067268208 -0.076621003 0.41300002
0.067987651 -0.076621003 0.41300002
0.068707094 -0.076621003 0.41300002
0.069426544 -0.076621003 0.41300002
0.070145987 -0.076621003 0.41300002
0.070693851 -0.076435484 0.41200003
0.07158488 -0.076621003 0.41300002
0.072304331 -0.076621003 0.41300002
0.073023774 -0.076621003 0.41300002
0.073564664 -0.076435484 0.41200003
0.074282371 -0.076435484 0.41200003
0.07500007 -0.076435484 0.41200003
0.075717777 -0.076435484 0.41200003
0.076435484 -0.076435484 0.41200003
0.077153184 -0.076435484 0.41200003
0.07787089 -0.076435484 0.41200003
0.07858859 -0.076435484 0.41200003
0.079306297 -0.076435484 0.41200003
0.080024004 -0.076435484 0.41200003
0.080545731 -0.076249957 0.41100001
0.081261694 -0.076249957 0.41100001
0.081977651 -0.076249957 0.41100001
0.082693614 -0.076249957 0.41100001
0.083409578 -0.076249957 0.41100001
0.084125541 -0.076249957 0.41100001
0.084841505 -0.076249957 0.41100001
0.085557461 -0.076249957 0.41100001
0.086273424 -0.076249957 0.41100001
0.059354298 -0.07590156 0.41300002
0.060073745 -0.07590156 0.41300002
0.060793191 -0.07590156 0.41300002
0.061512638 -0.07590156 0.41300002
0.062382765 -0.076085337 0.41400003
0.063103952 -0.076085337 0.41400003
0.063825145 -0.076085337 0.41400003
0.064546332 -0.076085337 0.41400003
0.065267518 -0.076085337 0.41400003
0.065988705 -0.076085337 0.41400003
0.066709891 -0.076085337 0.41400003
0.067431085 -0.076085337 0.41400003
0.068152271 -0.076085337 0.41400003
0.068707094 -0.07590156 0.41300002
0.069426544 -0.07590156 0.41300002
0.070145987 -0.07590156 0.41300002
0.070865437 -0.07590156 0.41300002
0.07158488 -0.07590156 0.41300002
0.072304331 -0.07590156 0.41300002
0.073023774 -0.07590156 0.41300002
0.073743217 -0.07590156 0.41300002
0.074462667 -0.07590156 0.41300002
0.07518211 -0.07590156 0.41300002
0.07590156 -0.07590156 0.41300002
0.076621003 -0.07590156 0.41300002
0.077340446 -0.07590156 0.41300002
0.078059897 -0.07590156 0.41300002
0.07858859 -0.075717777 0.41200003
0.07949879 -0.07590156 0.41300002
0.080024004 -0.075717777 0.41200003
0.080741704 -0.075717777 0.41200003
0.08145941 -0.075717777 0.41200003
0.081977651 -0.075533994 0.41100001
0.082693614 -0.075533994 0.41100001
0.083612524 -0.075717777 0.41200003
0.084330224 -0.075717777 0.41200003
0.084841505 -0.075533994 0.41100001
0.085557461 -0.075533994 0.41100001
0.086273424 -0.075533994 0.41100001
0.059498012 -0.07536415 0.41400003
0.060219202 -0.07536415 0.41400003
0.060940389 -0.07536415 0.41400003
0.061661579 -0.07536415 0.41400003
0.062382765 -0.07536415 0.41400003
0.063103952 -0.07536415 0.41400003
0.063825145 -0.07536415 0.41400003
0.064546332 -0.07536415 0.41400003
0.065267518 -0.07536415 0.41400003
0.065988705 -0.07536415 0.41400003
0.066709891 -0.07536415 0.41400003
0.067431085 -0.07536415 0.41400003
0.068152271 -0.07536415 0.41400003
0.068873458 -0.07536415 0.41400003
0.069594644 -0.07536415 0.41400003
0.070315838 -0.07536415 0.41400003
0.070865437 -0.07518211 0.41300002
0.07158488 -0.07518211 0.41300002
0.072304331 -0.07518211 0.41300002
0.073023774 -0.07518211 0.41300002
0.073743217 -0.07518211 0.41300002
0.074462667 -0.07518211 0.41300002
0.07536415 -0.07536415 0.41400003
0.076085337 -0.07536415 0.41400003
0.07680653 -0.07536415 0.41400003
0.077340446 -0.07518211 0.41300002
0.078059897 -0.07518211 0.41300002
0.07877934 -0.07518211 0.41300002
0.07949879 -0.07518211 0.41300002
0.080218233 -0.07518211 0.41300002
0.080741704 -0.07500007 0.41200003
0.081657127 -0.07518211 0.41300002
0.08217711 -0.07500007 0.41200003
0.082894817 -0.07500007 0.41200003
0.083612524 -0.07500007 0.41200003
0.084330224 -0.07500007 0.41200003
0.08504793 -0.07500007 0.41200003
0.085557461 -0.07481803 0.41100001
0.086273424 -0.07481803 0.41100001
0.059498012 -0.074642964 0.41400003
0.060219202 -0.074642964 0.41400003
0.060940389 -0.074642964 0.41400003
0.061661579 -0.074642964 0.41400003
0.062533446 -0.07482326 0.41500002
0.063256375 -0.07482326 0.41500002
0.063979305 -0.07482326 0.41500002
0.064546332 -0.074642964 0.41400003
0.065267518 -0.074642964 0.41400003
0.066148102 -0.07482326 0.41500002
0.066871032 -0.07482326 0.41500002
0.067593962 -0.07482326 0.41500002
0.068316892 -0.07482326 0.41500002
0.069039822 -0.07482326 0.41500002
0.069762751 -0.07482326 0.41500002
0.070315838 -0.074642964 0.41400003
0.071037024 -0.074642964 0.41400003
0.071758211 -0.074642964 0.41400003
0.072479397 -0.074642964 0.41400003
0.073200583 -0.074642964 0.41400003
0.073921777 -0.074642964 0.41400003
0.074642964 -0.074642964 0.41400003
0.07536415 -0.074642964 0.41400003
0.076085337 -0.074642964 0.41400003
0.07680653 -0.074642964 0.41400003
0.077527717 -0.074642964 0.41400003
0.078059897 -0.074462667 0.41300002
0.07877934 -0.074462667 0.41300002
0.07949879 -0.074462667 0.41300002
0.080218233 -0.074462667 0.41300002
0.080937684 -0.074462667 0.41300002
0.081657127 -0.074462667 0.41300002
0.08217711 -0.074282371 0.41200003
0.082894817 -0.074282371 0.41200003
0.083612524 -0.074282371 0.41200003
0.084330224 -0.074282371 0.41200003
0.06036466 -0.07410033 0.41500002
0.06108759 -0.07410033 0.41500002
0.061661579 -0.073921777 0.41400003
0.062533446 -0.07410033 0.41500002
0.063256375 -0.07410033 0.41500002
0.063979305 -0.07410033 0.41500002
0.064702243 -0.07410033 0.41500002
0.065425172 -0.07410033 0.41500002
0.066148102 -0.07410033 0.41500002
0.066871032 -0.07410033 0.41500002
0.067593962 -0.07410033 0.41500002
0.068316892 -0.07410033 0.41500002
0.069039822 -0.07410033 0.41500002
0.069762751 -0.07410033 0.41500002
0.070485681 -0.07410033 0.41500002
0.071208611 -0.07410033 0.41500002
0.071931541 -0.07410033 0.41500002
0.072654471 -0.07410033 0.41500002
0.073377401 -0.07410033 0.41500002
0.07410033 -0.07410033 0.41500002
0.07482326 -0.07410033 0.41500002
0.07554619 -0.07410033 0.41500002
0.076085337 -0.073921777 0.41400003
0.07680653 -0.073921777 0.41400003
0.077527717 -0.073921777 0.41400003
0.078248903 -0.073921777 0.41400003
0.07897009 -0.073921777 0.41400003
0.079691276 -0.073921777 0.41400003
0.080218233 -0.073743217 0.41300002
0.080937684 -0.073743217 0.41300002
0.081657127 -0.073743217 0.41300002
0.08237657 -0.073743217 0.41300002
0.08309602 -0.073743217 0.41300002
0.060510118 -0.07355421 0.41600001
0.06108759 -0.073377401 0.41500002
0.06181052 -0.073377401 0.41500002
0.062533446 -0.073377401 0.41500002
0.063256375 -0.073377401 0.41500002
0.063979305 -0.073377401 0.41500002
0.064702243 -0.073377401 0.41500002
0.065425172 -0.073377401 0.41500002
0.066148102 -0.073377401 0.41500002
0.066871032 -0.073377401 0.41500002
0.067593962 -0.073377401 0.41500002
0.068316892 -0.073377401 0.41500002
0.069039822 -0.073377401 0.41500002
0.069762751 -0.073377401 0.41500002
0.070485681 -0.073377401 0.41500002
0.071208611 -0.073377401 0.41500002
0.071931541 -0.073377401 0.41500002
0.072654471 -0.073377401 0.41500002
0.073377401 -0.073377401 0.41500002
0.07410033 -0.073377401 0.41500002
0.07482326 -0.073377401 0.41500002
0.07554619 -0.073377401 0.41500002
0.07626912 -0.073377401 0.41500002
0.07680653 -0.073200583 0.41400003
0.077527717 -0.073200583 0.41400003
0.078248903 -0.073200583 0.41400003
0.07897009 -0.073200583 0.41400003
0.079691276 -0.073200583 0.41400003
0.080218233 -0.073023774 0.41300002
0.080937684 -0.073023774 0.41300002
0.081657127 -0.073023774 0.41300002
0.08237657 -0.073023774 0.41300002
0.08309602 -0.073023774 0.41300002
0.059202746 -0.073004611 0.41700003
0.059929159 -0.073004611 0.41700003
0.060510118 -0.072829537 0.41600001
0.061234787 -0.072829537 0.41600001
0.06195946 -0.072829537 0.41600001
0.062684134 -0.072829537 0.41600001
0.063408807 -0.072829537 0.41600001
0.064133473 -0.072829537 0.41600001
0.064702243 -0.072654471 0.41500002
0.065582819 -0.072829537 0.41600001
0.066307493 -0.072829537 0.41600001
0.066871032 -0.072654471 0.41500002
0.067593962 -0.072654471 0.41500002
0.068316892 -0.072654471 0.41500002
0.069206178 -0.072829537 0.41600001
0.069930851 -0.072829537 0.41600001
0.070655525 -0.072829537 0.41600001
0.071208611 -0.072654471 0.41500002
0.072104871 -0.072829537 0.41600001
0.072654471 -0.072654471 0.41500002
0.073377401 -0.072654471 0.41500002
0.07410033 -0.072654471 0.41500002
0.07482326 -0.072654471 0.41500002
0.07554619 -0.072654471 0.41500002
0.076085337 -0.072479397 0.41400003
0.07680653 -0.072479397 0.41400003
0.077527717 -0.072479397 0.41400003
0.078059897 -0.072304331 0.41300002
0.07897009 -0.072479397 0.41400003
0.079691276 -0.072479397 0.41400003
0.080218233 -0.072304331 0.41300002
0.080937684 -0.072304331 0.41300002
0.081657127 -0.072304331 0.41300002
0.08237657 -0.072304331 0.41300002
0.059202746 -0.072278194 0.41700003
0.059929159 -0.072278194 0.41700003
0.060655572 -0.072278194 0.41700003
0.061381988 -0.072278194 0.41700003
0.06195946 -0.072104871 0.41600001
0.062834814 -0.072278194 0.41700003
0.063408807 -0.072104871 0.41600001
0.064133473 -0.072104871 0.41600001
0.064858146 -0.072104871 0.41600001
0.065582819 -0.072104871 0.41600001
0.066307493 -0.072104871 0.41600001
0.067032166 -0.072104871 0.41600001
0.067756839 -0.072104871 0.41600001
0.068481505 -0.072104871 0.41600001
0.069206178 -0.072104871 0.41600001
0.069930851 -0.072104871 0.41600001
0.070655525 -0.072104871 0.41600001
0.071380198 -0.072104871 0.41600001
0.072104871 -0.072104871 0.41600001
0.072829537 -0.072104871 0.41600001
0.07355421 -0.072104871 0.41600001
0.07410033 -0.071931541 0.41500002
0.07482326 -0.071931541 0.41500002
0.07554619 -0.071931541 0.41500002
0.076085337 -0.071758211 0.41400003
0.07680653 -0.071758211 0.41400003
0.077527717 -0.071758211 0.41400003
0.078059897 -0.07158488 0.41300002
0.07877934 -0.07158488 0.41300002
0.079691276 -0.071758211 0.41400003
0.080218233 -0.07158488 0.41300002
0.080937684 -0.07158488 0.41300002
0.059202746 -0.071551785 0.41700003
0.059929159 -0.071551785 0.41700003
0.060655572 -0.071551785 0.41700003
0.061381988 -0.071551785 0.41700003
0.062108401 -0.071551785 0.41700003
0.062834814 -0.071551785 0.41700003
0.063561231 -0.071551785 0.41700003
0.06428764 -0.071551785 0.41700003
0.065014057 -0.071551785 0.41700003
0.065740474 -0.071551785 0.41700003
0.066466883 -0.071551785 0.41700003
0.067032166 -0.071380198 0.41600001
0.067756839 -0.071380198 0.41600001
0.068481505 -0.071380198 0.41600001
0.069206178 -0.071380198 0.41600001
0.069930851 -0.071380198 0.41600001
0.070825368 -0.071551785 0.41700003
0.071380198 -0.071380198 0.41600001
0.072104871 -0.071380198 0.41600001
0.072829537 -0.071380198 0.41600001
0.07355421 -0.071380198 0.41600001
0.074278884 -0.071380198 0.41600001
0.07482326 -0.071208611 0.41500002
0.07554619 -0.071208611 0.41500002
0.07626912 -0.071208611 0.41500002
0.07699205 -0.071208611 0.41500002
0.077527717 -0.071037024 0.41400003
0.059344716 -0.070995212 0.41800001
0.060072873 -0.070995212 0.41800001
0.060801029 -0.070995212 0.41800001
0.061529186 -0.070995212 0.41800001
0.062108401 -0.070825368 0.41700003
0.062985495 -0.070995212 0.41800001
0.063713655 -0.070995212 0.41800001
0.064441808 -0.070995212 0.41800001
0.065169968 -0.070995212 0.41800001
0.065740474 -0.070825368 0.41700003
0.066466883 -0.070825368 0.41700003
0.0671933 -0.070825368 0.41700003
0.067919716 -0.070825368 0.41700003
0.068646125 -0.070825368 0.41700003
0.069372542 -0.070825368 0.41700003
0.070098959 -0.070825368 0.41700003
0.070825368 -0.070825368 0.41700003
0.071551785 -0.070825368 0.41700003
0.072278194 -0.070825368 0.41700003
0.073004611 -0.070825368 0.41700003
0.07355421 -0.070655525 0.41600001
0.074278884 -0.070655525 0.41600001
0.07482326 -0.070485681 0.41500002
0.07554619 -0.070485681 0.41500002
0.07626912 -0.070485681 0.41500002
0.07699205 -0.070485681 0.41500002
0.059344716 -0.070267059 0.41800001
0.060072873 -0.070267059 0.41800001
0.060801029 -0.070267059 0.41800001
0.061529186 -0.070267059 0.41800001
0.062257342 -0.070267059 0.41800001
0.063136183 -0.070435159 0.41900003
0.063866079 -0.070435159 0.41900003
0.064595975 -0.070435159 0.41900003
0.065325879 -0.070435159 0.41900003
0.06589812 -0.070267059 0.41800001
0.066626281 -0.070267059 0.41800001
0.0671933 -0.070098959 0.41700003
0.067919716 -0.070098959 0.41700003
0.068646125 -0.070098959 0.41700003
0.069372542 -0.070098959 0.41700003
0.070098959 -0.070098959 0.41700003
0.070825368 -0.070098959 0.41700003
0.071551785 -0.070098959 0.41700003
0.072278194 -0.070098959 0.41700003
0.073004611 -0.070098959 0.41700003
0.073731028 -0.070098959 0.41700003
0.074278884 -0.069930851 0.41600001
0.075003557 -0.069930851 0.41600001
0.07554619 -0.069762751 0.41500002
0.07626912 -0.069762751 0.41500002
0.058756791 -0.069705263 0.41900003
0.059344716 -0.069538899 0.41800001
0.060072873 -0.069538899 0.41800001
0.060801029 -0.069538899 0.41800001
0.061529186 -0.069538899 0.41800001
0.062257342 -0.069538899 0.41800001
0.063136183 -0.069705263 0.41900003
0.063866079 -0.069705263 0.41900003
0.064595975 -0.069705263 0.41900003
0.065325879 -0.069705263 0.41900003
0.066055775 -0.069705263 0.41900003
0.066785671 -0.069705263 0.41900003
0.067515567 -0.069705263 0.41900003
0.068082593 -0.069538899 0.41800001
0.068810746 -0.069538899 0.41800001
0.069538899 -0.069538899 0.41800001
0.070267059 -0.069538899 0.41800001
0.070995212 -0.069538899 0.41800001
0.071551785 -0.069372542 0.41700003
0.072451524 -0.069538899 0.41800001
0.073004611 -0.069372542 0.41700003
0.073731028 -0.069372542 0.41700003
0.074457437 -0.069372542 0.41700003
0.075003557 -0.069206178 0.41600001
0.07554619 -0.069039822 0.41500002
0.056837108 -0.0693046 0.42100003
0.057433743 -0.069139987 0.42000002
0.058165383 -0.069139987 0.42000002
0.058756791 -0.068975367 0.41900003
0.059486691 -0.068975367 0.41900003
0.060216587 -0.068975367 0.41900003
0.060946487 -0.068975367 0.41900003
0.061676383 -0.068975367 0.41900003
0.062257342 -0.068810746 0.41800001
0.063136183 -0.068975367 0.41900003
0.063866079 -0.068975367 0.41900003
0.064595975 -0.068975367 0.41900003
0.065325879 -0.068975367 0.41900003
0.066055775 -0.068975367 0.41900003
0.066785671 -0.068975367 0.41900003
0.067515567 -0.068975367 0.41900003
0.068245471 -0.068975367 0.41900003
0.068975367 -0.068975367 0.41900003
0.069538899 -0.068810746 0.41800001
0.070267059 -0.068810746 0.41800001
0.070995212 -0.068810746 0.41800001
0.071723372 -0.068810746 0.41800001
0.072451524 -0.068810746 0.41800001
0.073179685 -0.068810746 0.41800001
0.073907837 -0.068810746 0.41800001
0.074457437 -0.068646125 0.41700003
0.075183854 -0.068646125 0.41700003
0.058165383 -0.068408348 0.42000002
0.058897022 -0.068408348 0.42000002
0.059486691 -0.068245471 0.41900003
0.060216587 -0.068245471 0.41900003
0.060946487 -0.068245471 0.41900003
0.061676383 -0.068245471 0.41900003
0.062406283 -0.068245471 0.41900003
0.063136183 -0.068245471 0.41900003
0.063866079 -0.068245471 0.41900003
0.064595975 -0.068245471 0.41900003
0.065325879 -0.068245471 0.41900003
0.066055775 -0.068245471 0.41900003
0.066945061 -0.068408348 0.42000002
0.067676701 -0.068408348 0.42000002
0.068245471 -0.068245471 0.41900003
0.068975367 -0.068245471 0.41900003
0.069705263 -0.068245471 0.41900003
0.070435159 -0.068245471 0.41900003
0.070995212 -0.068082593 0.41800001
0.071723372 -0.068082593 0.41800001
0.072451524 -0.068082593 0.41800001
0.073179685 -0.068082593 0.41800001
0.073907837 -0.068082593 0.41800001
0.074635997 -0.068082593 0.41800001
0.058165383 -0.067676701 0.42000002
0.058897022 -0.067676701 0.42000002
0.059628665 -0.067676701 0.42000002
0.060360305 -0.067676701 0.42000002
0.060946487 -0.067515567 0.41900003
0.061676383 -0.067515567 0.41900003
0.062406283 -0.067515567 0.41900003
0.063286863 -0.067676701 0.42000002
0.064018503 -0.067676701 0.42000002
0.064750142 -0.067676701 0.42000002
0.065481782 -0.067676701 0.42000002
0.066213422 -0.067676701 0.42000002
0.066945061 -0.067676701 0.42000002
0.067676701 -0.067676701 0.42000002
0.068408348 -0.067676701 0.42000002
0.069139987 -0.067676701 0.42000002
0.069705263 -0.067515567 0.41900003
0.070435159 -0.067515567 0.41900003
0.071165062 -0.067515567 0.41900003
0.071723372 -0.067354433 0.41800001
0.072451524 -0.067354433 0.41800001
0.073179685 -0.067354433 0.41800001
0.058165383 -0.066945061 0.42000002
0.058897022 -0.066945061 0.42000002
0.059628665 -0.066945061 0.42000002
0.060360305 -0.066945061 0.42000002
0.061091945 -0.066945061 0.42000002
0.061823584 -0.066945061 0.42000002
0.062555224 -0.066945061 0.42000002
0.063286863 -0.066945061 0.42000002
0.064018503 -0.066945061 0.42000002
0.064750142 -0.066945061 0.42000002
0.065481782 -0.066945061 0.42000002
0.066213422 -0.066945061 0.42000002
0.066945061 -0.066945061 0.42000002
0.067676701 -0.066945061 0.42000002
0.068408348 -0.066945061 0.42000002
0.069139987 -0.066945061 0.42000002
0.069871627 -0.066945061 0.42000002
0.070435159 -0.066785671 0.41900003
0.071165062 -0.066785671 0.41900003
0.071723372 -0.066626281 0.41800001
0.072624855 -0.066785671 0.41900003
0.073354751 -0.066785671 0.41900003
0.058303874 -0.066371076 0.42100003
0.059037253 -0.066371076 0.42100003
0.059770636 -0.066371076 0.42100003
0.060504019 -0.066371076 0.42100003
0.061237402 -0.066371076 0.42100003
0.061823584 -0.066213422 0.42000002
0.062555224 -0.066213422 0.42000002
0.063437544 -0.066371076 0.42100003
0.064170927 -0.066371076 0.42100003
0.06490431 -0.066371076 0.42100003
0.065637693 -0.066371076 0.42100003
0.066371076 -0.066371076 0.42100003
0.067104459 -0.066371076 0.42100003
0.067837842 -0.066371076 0.42100003
0.068571225 -0.066371076 0.42100003
0.069139987 -0.066213422 0.42000002
0.069871627 -0.066213422 0.42000002
0.070603266 -0.066213422 0.42000002
0.071334906 -0.066213422 0.42000002
0.059037253 -0.065637693 0.42100003
0.059912611 -0.065793604 0.42200002
0.060647734 -0.065793604 0.42200002
0.061237402 -0.065637693 0.42100003
0.061970782 -0.065637693 0.42100003
0.062704168 -0.065637693 0.42100003
0.063437544 -0.065637693 0.42100003
0.064170927 -0.065637693 0.42100003
0.06490431 -0.065637693 0.42100003
0.065637693 -0.065637693 0.42100003
0.066371076 -0.065637693 0.42100003
0.067104459 -0.065637693 0.42100003
0.067837842 -0.065637693 0.42100003
0.068571225 -0.065637693 0.42100003
0.0693046 -0.065637693 0.42100003
0.070037983 -0.065637693 0.42100003
0.070771366 -0.065637693 0.42100003
0.059177484 -0.065058477 0.42200002
0.059912611 -0.065058477 0.42200002
0.060647734 -0.065058477 0.42200002
0.061382856 -0.065058477 0.42200002
0.062117983 -0.065058477 0.42200002
0.062853105 -0.065058477 0.42200002
0.063588232 -0.065058477 0.42200002
0.064323351 -0.065058477 0.42200002
0.06490431 -0.06490431 0.42100003
0.065793604 -0.065058477 0.42200002
0.066528723 -0.065058477 0.42200002
0.067104459 -0.06490431 0.42100003
0.067837842 -0.06490431 0.42100003
0.068571225 -0.06490431 0.42100003
0.0693046 -0.06490431 0.42100003
0.070037983 -0.06490431 0.42100003
0.070771366 -0.06490431 0.42100003
0.071504749 -0.06490431 0.42100003
0.058442362 -0.064323351 0.42200002
0.059177484 -0.064323351 0.42200002
0.059912611 -0.064323351 0.42200002
0.060647734 -0.064323351 0.42200002
0.061382856 -0.064323351 0.42200002
0.062117983 -0.064323351 0.42200002
0.062853105 -0.064323351 0.42200002
0.063738912 -0.064475782 0.42300001
0.064475782 -0.064475782 0.42300001
0.065212645 -0.064475782 0.42300001
0.065793604 -0.064323351 0.42200002
0.066528723 -0.064323351 0.42200002
0.067263849 -0.064323351 0.42200002
0.067998976 -0.064323351 0.42200002
0.068734102 -0.064323351 0.42200002
0.0693046 -0.064170927 0.42100003
0.070037983 -0.064170927 0.42100003
0.070771366 -0.064170927 0.42100003
0.059317715 -0.063738912 0.42300001
0.060054582 -0.063738912 0.42300001
0.060791448 -0.063738912 0.42300001
0.061528314 -0.063738912 0.42300001
0.06226518 -0.063738912 0.42300001
0.06300205 -0.063738912 0.42300001
0.063738912 -0.063738912 0.42300001
0.064475782 -0.063738912 0.42300001
0.065212645 -0.063738912 0.42300001
0.065949515 -0.063738912 0.42300001
0.066686377 -0.063738912 0.42300001
0.067423247 -0.063738912 0.42300001
0.067998976 -0.063588232 0.42200002
0.068734102 -0.063588232 0.42200002
0.070204347 -0.063588232 0.42200002
0.058719341 -0.063150987 0.42400002
0.059317715 -0.06300205 0.42300001
0.060196556 -0.063150987 0.42400002
0.060791448 -0.06300205 0.42300001
0.061528314 -0.06300205 0.42300001
0.06226518 -0.06300205 0.42300001
0.06300205 -0.06300205 0.42300001
0.063889593 -0.063150987 0.42400002
0.064628206 -0.063150987 0.42400002
0.065366812 -0.063150987 0.42400002
0.065949515 -0.06300205 0.42300001
0.066686377 -0.06300205 0.42300001
0.067423247 -0.06300205 0.42300001
0.068160109 -0.06300205 0.42300001
0.068896972 -0.06300205 0.42300001
0.058719341 -0.062412381 0.42400002
0.059457947 -0.062412381 0.42400002
0.060196556 -0.062412381 0.42400002
0.060935162 -0.062412381 0.42400002
0.061673772 -0.062412381 0.42400002
0.062412381 -0.062412381 0.42400002
0.063150987 -0.062412381 0.42400002
0.063889593 -0.062412381 0.42400002
0.064628206 -0.062412381 0.42400002
0.065366812 -0.062412381 0.42400002
0.066105418 -0.062412381 0.42400002
0.066844031 -0.062412381 0.42400002
0.067423247 -0.06226518 0.42300001
0.068160109 -0.06226518 0.42300001
0.058117479 -0.061819229 0.42500001
0.058719341 -0.061673772 0.42400002
0.059457947 -0.061673772 0.42400002
0.060196556 -0.061673772 0.42400002
0.060935162 -0.061673772 0.42400002
0.061673772 -0.061673772 0.42400002
0.062412381 -0.061673772 0.42400002
0.063150987 -0.061673772 0.42400002
0.063889593 -0.061673772 0.42400002
0.06478063 -0.061819229 0.42500001
0.065520979 -0.061819229 0.42500001
0.066105418 -0.061673772 0.42400002
0.066844031 -0.061673772 0.42400002
0.067582637 -0.061673772 0.42400002
0.068321243 -0.061673772 0.42400002
0.058117479 -0.06107888 0.42500001
0.058857828 -0.06107888 0.42500001
0.059598178 -0.06107888 0.42500001
0.060338527 -0.06107888 0.42500001
0.06107888 -0.06107888 0.42500001
0.061819229 -0.06107888 0.42500001
0.062412381 -0.060935162 0.42400002
0.063150987 -0.060935162 0.42400002
0.064040281 -0.06107888 0.42500001
0.06478063 -0.06107888 0.42500001
0.065520979 -0.06107888 0.42500001
0.066261329 -0.06107888 0.42500001
0.066844031 -0.060935162 0.42400002
0.067582637 -0.060935162 0.42400002
0.058117479 -0.060338527 0.42500001
0.058857828 -0.060338527 0.42500001
0.059598178 -0.060338527 0.42500001
0.060338527 -0.060338527 0.42500001
0.06107888 -0.060338527 0.42500001
0.061819229 -0.060338527 0.42500001
0.062559582 -0.060338527 0.42500001
0.063299932 -0.060338527 0.42500001
0.064040281 -0.060338527 0.42500001
0.06478063 -0.060338527 0.42500001
0.065520979 -0.060338527 0.42500001
0.066261329 -0.060338527 0.42500001
0.067001678 -0.060338527 0.42500001
0.067742027 -0.060338527 0.42500001
0.058390971 -0.05987864 0.42700002
0.058857828 -0.059598178 0.42500001
0.059738409 -0.059738409 0.42600003
0.060622476 -0.05987864 0.42700002
0.06107888 -0.059598178 0.42500001
0.061819229 -0.059598178 0.42500001
0.062559582 -0.059598178 0.42500001
0.063299932 -0.059598178 0.42500001
0.064190961 -0.059738409 0.42600003
0.064933054 -0.059738409 0.42600003
0.065675147 -0.059738409 0.42600003
0.06641724 -0.059738409 0.42600003
0.067159332 -0.059738409 0.42600003
0.067742027 -0.059598178 0.42500001
0.068482377 -0.059598178 0.42500001
0.058390971 -0.059134807 0.42700002
0.058996316 -0.058996316 0.42600003
0.059738409 -0.058996316 0.42600003
0.060622476 -0.059134807 0.42700002
0.061222594 -0.058996316 0.42600003
0.061964687 -0.058996316 0.42600003
0.062706776 -0.058996316 0.42600003
0.063448869 -0.058996316 0.42600003
0.064341642 -0.059134807 0.42700002
0.065085478 -0.059134807 0.42700002
0.065829314 -0.059134807 0.42700002
0.06657315 -0.059134807 0.42700002
0.067316979 -0.059134807 0.42700002
0.067742027 -0.058857828 0.42500001
0.068482377 -0.058857828 0.42500001
0.058390971 -0.058390971 0.42700002
0.058996316 -0.058254227 0.42600003
0.05987864 -0.058390971 0.42700002
0.060622476 -0.058390971 0.42700002
0.061366308 -0.058390971 0.42700002
0.062110145 -0.058390971 0.42700002
0.062853977 -0.058390971 0.42700002
0.063597813 -0.058390971 0.42700002
0.064341642 -0.058390971 0.42700002
0.065085478 -0.058390971 0.42700002
0.065829314 -0.058390971 0.42700002
0.06657315 -0.058390971 0.42700002
0.067316979 -0.058390971 0.42700002
0.068060815 -0.058390971 0.42700002
0.068643518 -0.058254227 0.42600003
0.069385603 -0.058254227 0.42600003
0.059134807 -0.057647139 0.42700002
0.05987864 -0.057647139 0.42700002
0.060622476 -0.057647139 0.42700002
0.061366308 -0.057647139 0.42700002
0.062110145 -0.057647139 0.42700002
0.062853977 -0.057647139 0.42700002
0.063597813 -0.057647139 0.42700002
0.06449233 -0.057782143 0.42800003
0.065237902 -0.057782143 0.42800003
0.065983482 -0.057782143 0.42800003
0.06657315 -0.057647139 0.42700002
0.067316979 -0.057647139 0.42700002
0.068060815 -0.057647139 0.42700002
0.068643518 -0.057512134 0.42600003
0.069385603 -0.057512134 0.42600003
0.059134807 -0.056903306 0.42700002
0.05987864 -0.056903306 0.42700002
0.060764447 -0.057036567 0.42800003
0.061510023 -0.057036567 0.42800003
0.062255599 -0.057036567 0.42800003
0.063001178 -0.057036567 0.42800003
0.063597813 -0.056903306 0.42700002
0.06449233 -0.057036567 0.42800003
0.065237902 -0.057036567 0.42800003
0.065983482 -0.057036567 0.42800003
0.066729054 -0.057036567 0.42800003
0.067474633 -0.057036567 0.42800003
0.068060815 -0.056903306 0.42700002
0.068643518 -0.056770042 0.42600003
0.069385603 -0.056770042 0.42600003
0.059273295 -0.056290992 0.42800003
0.060018871 -0.056290992 0.42800003
0.060764447 -0.056290992 0.42800003
0.061510023 -0.056290992 0.42800003
0.062255599 -0.056290992 0.42800003
0.063001178 -0.056290992 0.42800003
0.06374675 -0.056290992 0.42800003
0.06449233 -0.056290992 0.42800003
0.065237902 -0.056290992 0.42800003
0.065983482 -0.056290992 0.42800003
0.066729054 -0.056290992 0.42800003
0.067474633 -0.056290992 0.42800003
0.068060815 -0.05615947 0.42700002
0.068643518 -0.056027949 0.42600003
0.069222726 -0.055896427 0.42500001
0.059411786 -0.055675194 0.42900002
0.060159102 -0.055675194 0.42900002
0.060906421 -0.055675194 0.42900002
0.061653741 -0.055675194 0.42900002
0.062401056 -0.055675194 0.42900002
0.063001178 -0.055545416 0.42800003
0.06374675 -0.055545416 0.42800003
0.06464301 -0.055675194 0.42900002
0.065390326 -0.055675194 0.42900002
0.066137649 -0.055675194 0.42900002
0.066729054 -0.055545416 0.42800003
0.067474633 -0.055545416 0.42800003
0.068220206 -0.055545416 0.42800003
0.068965785 -0.055545416 0.42800003
0.069222726 -0.055156078 0.42500001
0.069963083 -0.055156078 0.42500001
0.059550274 -0.055055913 0.43000001
0.060299333 -0.055055913 0.43000001
0.061048392 -0.055055913 0.43000001
0.061653741 -0.054927878 0.42900002
0.062401056 -0.054927878 0.42900002
0.063148372 -0.054927878 0.42900002
0.063895695 -0.054927878 0.42900002
0.06464301 -0.054927878 0.42900002
0.065390326 -0.054927878 0.42900002
0.066137649 -0.054927878 0.42900002
0.066884965 -0.054927878 0.42900002
0.06763228 -0.054927878 0.42900002
0.068220206 -0.05479984 0.42800003
0.068965785 -0.05479984 0.42800003
0.069222726 -0.054415729 0.42500001
0.069963083 -0.054415729 0.42500001
0.059688762 -0.054433148 0.43100002
0.060439564 -0.054433148 0.43100002
0.061048392 -0.054306854 0.43000001
0.061797455 -0.054306854 0.43000001
0.062546514 -0.054306854 0.43000001
0.063148372 -0.054180559 0.42900002
0.063895695 -0.054180559 0.42900002
0.064793691 -0.054306854 0.43000001
0.065542758 -0.054306854 0.43000001
0.066291817 -0.054306854 0.43000001
0.066884965 -0.054180559 0.42900002
0.06763228 -0.054180559 0.42900002
0.068379603 -0.054180559 0.42900002
0.068482377 -0.05367538 0.42500001
0.069222726 -0.05367538 0.42500001
0.069963083 -0.05367538 0.42500001
0.058937959 -0.053682346 0.43100002
0.059688762 -0.053682346 0.43100002
0.060439564 -0.053682346 0.43100002
0.061190367 -0.053682346 0.43100002
0.061941169 -0.053682346 0.43100002
0.062546514 -0.053557795 0.43000001
0.063295573 -0.053557795 0.43000001
0.064044632 -0.053557795 0.43000001
0.064793691 -0.053557795 0.43000001
0.065542758 -0.053557795 0.43000001
0.066291817 -0.053557795 0.43000001
0.067040876 -0.053557795 0.43000001
0.06763228 -0.053433239 0.42900002
0.068379603 -0.053433239 0.42900002
0.069126919 -0.053433239 0.42900002
0.069222726 -0.052935027 0.42500001
0.069963083 -0.052935027 0.42500001
0.059074707 -0.053054355 0.43200001
0.059688762 -0.052931543 0.43100002
0.060439564 -0.052931543 0.43100002
0.061190367 -0.052931543 0.43100002
0.061941169 -0.052931543 0.43100002
0.062691972 -0.052931543 0.43100002
0.063295573 -0.052808732 0.43000001
0.064044632 -0.052808732 0.43000001
0.064793691 -0.052808732 0.43000001
0.065542758 -0.052808732 0.43000001
0.066291817 -0.052808732 0.43000001
0.067040876 -0.052808732 0.43000001
0.067789935 -0.052808732 0.43000001
0.068379603 -0.052685924 0.42900002
0.05845717 -0.052422881 0.43300003
0.059074707 -0.052301813 0.43200001
0.059827253 -0.052301813 0.43200001
0.060579795 -0.052301813 0.43200001
0.061332341 -0.052301813 0.43200001
0.061941169 -0.052180741 0.43100002
0.062691972 -0.052180741 0.43100002
0.063442774 -0.052180741 0.43100002
0.064193577 -0.052180741 0.43100002
0.064944379 -0.052180741 0.43100002
0.065695181 -0.052180741 0.43100002
0.066445984 -0.052180741 0.43100002
0.067196786 -0.052180741 0.43100002
0.067789935 -0.052059673 0.43000001
0.068538994 -0.052059673 0.43000001
0.057836145 -0.05178792 0.43400002
0.058592174 -0.05178792 0.43400002
0.059348203 -0.05178792 0.43400002
0.059965741 -0.051668596 0.43300003
0.060579795 -0.051549267 0.43200001
0.061332341 -0.051549267 0.43200001
0.062084883 -0.051549267 0.43200001
0.062837429 -0.051549267 0.43200001
0.063589975 -0.051549267 0.43200001
0.064342514 -0.051549267 0.43200001
0.06509506 -0.051549267 0.43200001
0.065847605 -0.051549267 0.43200001
0.066445984 -0.051429939 0.43100002
0.067196786 -0.051429939 0.43100002
0.057836145 -0.051031895 0.43400002
0.058592174 -0.051031895 0.43400002
0.059348203 -0.051031895 0.43400002
0.060104229 -0.051031895 0.43400002
0.060720026 -0.05091431 0.43300003
0.061474312 -0.05091431 0.43300003
0.062084883 -0.050796725 0.43200001
0.062837429 -0.050796725 0.43200001
0.063589975 -0.050796725 0.43200001
0.064342514 -0.050796725 0.43200001
0.06509506 -0.050796725 0.43200001
0.065847605 -0.050796725 0.43200001
0.066600151 -0.050796725 0.43200001
0.06735269 -0.050796725 0.43200001
0.058727179 -0.050391708 0.43500003
0.059348203 -0.050275866 0.43400002
0.060104229 -0.050275866 0.43400002
0.060860258 -0.050275866 0.43400002
0.061616287 -0.050275866 0.43400002
0.062228598 -0.050160021 0.43300003
0.062982887 -0.050160021 0.43300003
0.063737169 -0.050160021 0.43300003
0.064491458 -0.050160021 0.43300003
0.065396428 -0.050275866 0.43400002
0.066000029 -0.050160021 0.43300003
0.066754319 -0.050160021 0.43300003
0.05796941 -0.049633939 0.43500003
0.058727179 -0.049633939 0.43500003
0.059484947 -0.049633939 0.43500003
0.060104229 -0.049519837 0.43400002
0.060860258 -0.049519837 0.43400002
0.061616287 -0.049519837 0.43400002
0.062372316 -0.049519837 0.43400002
0.063128345 -0.049519837 0.43400002
0.06388437 -0.049519837 0.43400002
0.064491458 -0.049405735 0.43300003
0.065396428 -0.049519837 0.43400002
0.066152453 -0.049519837 0.43400002
0.066754319 -0.049405735 0.43300003
0.067508601 -0.049405735 0.43300003
0.068420537 -0.049519837 0.43400002
0.079904675 -0.052600563 0.46100003
0.083838113 -0.053056967 0.46500003
0.058102671 -0.048988529 0.43600002
0.058862183 -0.048988529 0.43600002
0.059484947 -0.048876166 0.43500003
0.06024272 -0.048876166 0.43500003
0.061000489 -0.048876166 0.43500003
0.061616287 -0.048763808 0.43400002
0.062372316 -0.048763808 0.43400002
0.063128345 -0.048763808 0.43400002
0.06388437 -0.048763808 0.43400002
0.064640395 -0.048763808 0.43400002
0.065396428 -0.048763808 0.43400002
0.066152453 -0.048763808 0.43400002
0.066908479 -0.048763808 0.43400002
0.067664512 -0.048763808 0.43400002
0.068420537 -0.048763808 0.43400002
0.078930028 -0.051685143 0.46000001
0.079904675 -0.051797502 0.46100003
0.080707736 -0.051797502 0.46100003
0.082849525 -0.052134581 0.46400002
0.083838113 -0.052246939 0.46500003
0.08464814 -0.052246939 0.46500003
0.085458167 -0.052246939 0.46500003
0.089315832 -0.052134581 0.46400002
0.058102671 -0.048229016 0.43600002
0.058862183 -0.048229016 0.43600002
0.059621695 -0.048229016 0.43600002
0.06024272 -0.048118398 0.43500003
0.061000489 -0.048118398 0.43500003
0.061758257 -0.048118398 0.43500003
0.062516026 -0.048118398 0.43500003
0.063273802 -0.048118398 0.43500003
0.06388437 -0.048007783 0.43400002
0.064640395 -0.048007783 0.43400002
0.065547109 -0.048118398 0.43500003
0.066304877 -0.048118398 0.43500003
0.067062646 -0.048118398 0.43500003
0.067664512 -0.048007783 0.43400002
0.068420537 -0.048007783 0.43400002
0.06917657 -0.048007783 0.43400002
0.079904675 -0.050994441 0.46100003
0.081057876 -0.051215675 0.46300003
0.081864424 -0.051215675 0.46300003
0.082849525 -0.05132629 0.46400002
0.083657816 -0.05132629 0.46400002
0.0844661 -0.05132629 0.46400002
0.085458167 -0.051436909 0.46500003
0.086268201 -0.051436909 0.46500003
0.086890966 -0.05132629 0.46400002
0.087699257 -0.05132629 0.46400002
0.088507541 -0.05132629 0.46400002
0.089315832 -0.05132629 0.46400002
0.089929886 -0.051215675 0.46300003
0.058235936 -0.04757838 0.43700001
0.058862183 -0.047469504 0.43600002
0.059621695 -0.047469504 0.43600002
0.060381208 -0.047469504 0.43600002
0.06114072 -0.047469504 0.43600002
0.061758257 -0.047360629 0.43500003
0.062516026 -0.047360629 0.43500003
0.063273802 -0.047360629 0.43500003
0.064031571 -0.047360629 0.43500003
0.06478934 -0.047360629 0.43500003
0.065547109 -0.047360629 0.43500003
0.066304877 -0.047360629 0.43500003
0.067062646 -0.047360629 0.43500003
0.067820422 -0.047360629 0.43500003
0.081057876 -0.050409127 0.46300003
0.081864424 -0.050409127 0.46300003
0.082670972 -0.050409127 0.46300003
0.083657816 -0.050518002 0.46400002
0.08428406 -0.050409127 0.46300003
0.085274391 -0.050518002 0.46400002
0.086082675 -0.050518002 0.46400002
0.086890966 -0.050518002 0.46400002
0.087699257 -0.050518002 0.46400002
0.088507541 -0.050518002 0.46400002
0.089315832 -0.050518002 0.46400002
0.090124115 -0.050518002 0.46400002
0.090736434 -0.050409127 0.46300003
0.057606202 -0.046924256 0.43800002
0.058235936 -0.046817124 0.43700001
0.058997188 -0.046817124 0.43700001
0.059758443 -0.046817124 0.43700001
0.060381208 -0.046709992 0.43600002
0.06114072 -0.046709992 0.43600002
0.061900232 -0.046709992 0.43600002
0.06265974 -0.046709992 0.43600002
0.063273802 -0.046602856 0.43500003
0.064031571 -0.046602856 0.43500003
0.06478934 -0.046602856 0.43500003
0.065697789 -0.046709992 0.43600002
0.066457301 -0.046709992 0.43600002
0.067216814 -0.046709992 0.43600002
0.080532663 -0.049281184 0.46000001
0.081333987 -0.049281184 0.46000001
0.082670972 -0.049602583 0.46300003
0.083477519 -0.049602583 0.46300003
0.08428406 -0.049602583 0.46300003
0.085090607 -0.049602583 0.46300003
0.086082675 -0.049709715 0.46400002
0.086890966 -0.049709715 0.46400002
0.087510243 -0.049602583 0.46300003
0.088316791 -0.049602583 0.46300003
0.089123338 -0.049602583 0.46300003
0.089929886 -0.049602583 0.46300003
0.05747468 -0.046055868 0.43700001
0.058235936 -0.046055868 0.43700001
0.058997188 -0.046055868 0.43700001
0.059758443 -0.046055868 0.43700001
0.060519695 -0.046055868 0.43700001
0.06114072 -0.04595048 0.43600002
0.061900232 -0.04595048 0.43600002
0.06265974 -0.04595048 0.43600002
0.063419253 -0.04595048 0.43600002
0.064178765 -0.04595048 0.43600002
0.064938277 -0.04595048 0.43600002
0.065697789 -0.04595048 0.43600002
0.066457301 -0.04595048 0.43600002
0.067216814 -0.04595048 0.43600002
0.067976326 -0.04595048 0.43600002
0.081333987 -0.048479863 0.46000001
0.082135305 -0.048479863 0.46000001
0.082936622 -0.048479863 0.46000001
0.083919987 -0.048585255 0.46100003
0.085090607 -0.048796035 0.46300003
0.085897155 -0.048796035 0.46300003
0.086703703 -0.048796035 0.46300003
0.087510243 -0.048796035 0.46300003
0.088316791 -0.048796035 0.46300003
0.089123338 -0.048796035 0.46300003
0.089929886 -0.048796035 0.46300003
0.090736434 -0.048796035 0.46300003
0.057606202 -0.045398265 0.43800002
0.058369197 -0.045398265 0.43800002
0.058997188 -0.045294616 0.43700001
0.059758443 -0.045294616 0.43700001
0.060519695 -0.045294616 0.43700001
0.061280951 -0.045294616 0.43700001
0.062042207 -0.045294616 0.43700001
0.062803462 -0.045294616 0.43700001
0.063419253 -0.045190968 0.43600002
0.064178765 -0.045190968 0.43600002
0.064938277 -0.045190968 0.43600002
0.065697789 -0.045190968 0.43600002
0.066609733 -0.045294616 0.43700001
0.067370981 -0.045294616 0.43700001
0.068132237 -0.045294616 0.43700001
0.08115717 -0.047574893 0.45900002
0.082135305 -0.047678541 0.46000001
0.082936622 -0.047678541 0.46000001
0.083737947 -0.047678541 0.46000001
0.084723048 -0.04778219 0.46100003
0.085897155 -0.047989491 0.46300003
0.086703703 -0.047989491 0.46300003
0.087510243 -0.047989491 0.46300003
0.088316791 -0.047989491 0.46300003
0.089123338 -0.047989491 0.46300003
0.089929886 -0.047989491 0.46300003
0.090736434 -0.047989491 0.46300003
0.057606202 -0.04463527 0.43800002
0.058369197 -0.04463527 0.43800002
0.058997188 -0.044533361 0.43700001
0.059895191 -0.04463527 0.43800002
0.060519695 -0.044533361 0.43700001
0.061280951 -0.044533361 0.43700001
0.062042207 -0.044533361 0.43700001
0.062803462 -0.044533361 0.43700001
0.06356471 -0.044533361 0.43700001
0.064178765 -0.044431455 0.43600002
0.065087222 -0.044533361 0.43700001
0.065848477 -0.044533361 0.43700001
0.066609733 -0.044533361 0.43700001
0.067370981 -0.044533361 0.43700001
0.068132237 -0.044533361 0.43700001
0.069051139 -0.04463527 0.43800002
0.082135305 -0.046877224 0.46000001
0.082936622 -0.046877224 0.46000001
0.083737947 -0.046877224 0.46000001
0.084539264 -0.046877224 0.46000001
0.085526109 -0.046979129 0.46100003
0.08632917 -0.046979129 0.46100003
0.087321237 -0.047081038 0.46200001
0.088126041 -0.047081038 0.46200001
0.089123338 -0.047182944 0.46300003
0.089929886 -0.047182944 0.46300003
0.058369197 -0.043872274 0.43800002
0.058997188 -0.043772109 0.43700001
0.059895191 -0.043872274 0.43800002
0.060519695 -0.043772109 0.43700001
0.061280951 -0.043772109 0.43700001
0.062042207 -0.043772109 0.43700001
0.062803462 -0.043772109 0.43700001
0.06356471 -0.043772109 0.43700001
0.064325966 -0.043772109 0.43700001
0.065087222 -0.043772109 0.43700001
0.065848477 -0.043772109 0.43700001
0.066762157 -0.043872274 0.43800002
0.067525148 -0.043872274 0.43800002
0.068288147 -0.043872274 0.43800002
0.069208793 -0.043972436 0.43900001
0.069973528 -0.043972436 0.43900001
0.083555907 -0.045975737 0.45900002
0.084539264 -0.046075903 0.46000001
0.085340582 -0.046075903 0.46000001
0.086141907 -0.046075903 0.46000001
0.058502462 -0.043207701 0.43900001
0.059132192 -0.043109275 0.43800002
0.059895191 -0.043109275 0.43800002
0.060658187 -0.043109275 0.43800002
0.061421182 -0.043109275 0.43800002
0.062184177 -0.043109275 0.43800002
0.062947176 -0.043109275 0.43800002
0.063710168 -0.043109275 0.43800002
0.064473167 -0.043109275 0.43800002
0.065236159 -0.043109275 0.43800002
0.066149838 -0.043207701 0.43900001
0.066914581 -0.043207701 0.43900001
0.067679316 -0.043207701 0.43900001
0.068444058 -0.043207701 0.43900001
0.069208793 -0.043207701 0.43900001
0.069973528 -0.043207701 0.43900001
0.070899405 -0.043306123 0.44000003
0.07834471 -0.044487197 0.45200002
0.079132095 -0.044487197 0.45200002
0.080273107 -0.044684045 0.45400003
0.081242532 -0.044782467 0.45500001
0.083373867 -0.045077737 0.45800003
0.084171705 -0.045077737 0.45800003
0.084969543 -0.045077737 0.45800003
0.085767373 -0.045077737 0.45800003
0.059267201 -0.042442963 0.43900001
0.060031936 -0.042442963 0.43900001
0.060796674 -0.042442963 0.43900001
0.061561413 -0.042442963 0.43900001
0.062184177 -0.04234628 0.43800002
0.062947176 -0.04234628 0.43800002
0.063710168 -0.04234628 0.43800002
0.064473167 -0.04234628 0.43800002
0.065385103 -0.042442963 0.43900001
0.066149838 -0.042442963 0.43900001
0.066914581 -0.042442963 0.43900001
0.067679316 -0.042442963 0.43900001
0.068599962 -0.042539641 0.44000003
0.069208793 -0.042442963 0.43900001
0.070132926 -0.042539641 0.44000003
0.070899405 -0.042539641 0.44000003
0.071665883 -0.042539641 0.44000003
0.072596982 -0.042636324 0.44100001
0.078691371 -0.043893177 0.45400003
0.079482242 -0.043893177 0.45400003
0.080273107 -0.043893177 0.45400003
0.081242532 -0.04398986 0.45500001
0.082035139 -0.04398986 0.45500001
0.083191827 -0.044183221 0.45700002
0.083987921 -0.044183221 0.45700002
0.084969543 -0.044279899 0.45800003
0.085580111 -0.044183221 0.45700002
0.086376205 -0.044183221 0.45700002
0.0871723 -0.044183221 0.45700002
0.087968394 -0.044183221 0.45700002
0.060031936 -0.041678224 0.43900001
0.060796674 -0.041678224 0.43900001
0.061561413 -0.041678224 0.43900001
0.062326152 -0.041678224 0.43900001
0.063090891 -0.041678224 0.43900001
