# .PCD v0.7 - Point Cloud Data file format
VERSION 0.7
FIELDS x y z
SIZE 4 4 4
TYPE F F F
COUNT 1 1 1
WIDTH 1354
HEIGHT 1
VIEWPOINT 0 0 0 1 0 0 0
POINTS 1354
DATA ascii
0.1152394 -0.060631186 0.46100003
0.11604246 -0.060631186 0.46100003
0.11684553 -0.060631186 0.46100003
0.11764859 -0.060631186 0.46100003
0.11845165 -0.060631186 0.46100003
0.11925472 -0.060631186 0.46100003
0.1203182 -0.060762707 0.46200001
0.12086084 -0.060631186 0.46100003
0.1216639 -0.060631186 0.46100003
0.12246696 -0.060631186 0.46100003
0.12300263 -0.060499664 0.46000001
0.12380395 -0.060499664 0.46000001
0.12460527 -0.060499664 0.46000001
0.12540659 -0.060499664 0.46000001
0.1262079 -0.060499664 0.46000001
0.12700923 -0.060499664 0.46000001
0.095540866 -0.062164146 0.47900003
0.096375287 -0.062164146 0.47900003
0.097006761 -0.062034365 0.47800002
0.097839437 -0.062034365 0.47800002
0.098465689 -0.061904587 0.47700003
0.099088453 -0.061774809 0.47600001
0.099917643 -0.061774809 0.47600001
0.10053518 -0.061645027 0.47500002
0.10114924 -0.061515249 0.47400004
0.10197494 -0.061515249 0.47400004
0.10258377 -0.061385471 0.47300002
0.10318912 -0.061255693 0.47200003
0.10379098 -0.061125912 0.47100002
0.10438935 -0.060996134 0.47000003
0.10498425 -0.060866356 0.46900001
0.10557566 -0.060736574 0.46800002
0.10639092 -0.060736574 0.46800002
0.1069771 -0.060606796 0.46700001
0.10732898 -0.06034724 0.46500003
0.10813901 -0.06034724 0.46500003
0.10871474 -0.060217459 0.46400002
0.10928699 -0.060087681 0.46300003
0.10985576 -0.059957903 0.46200001
0.11042103 -0.059828121 0.46100003
0.11122409 -0.059828121 0.46100003
0.11178415 -0.059698343 0.46000001
0.11258547 -0.059698343 0.46000001
0.11338679 -0.059698343 0.46000001
0.1141881 -0.059698343 0.46000001
0.11498943 -0.059698343 0.46000001
0.11579075 -0.059698343 0.46000001
0.11659206 -0.059698343 0.46000001
0.11739339 -0.059698343 0.46000001
0.11819471 -0.059698343 0.46000001
0.11899602 -0.059698343 0.46000001
0.12005778 -0.059828121 0.46100003
0.12059867 -0.059698343 0.46000001
0.12139999 -0.059698343 0.46000001
0.12220131 -0.059698343 0.46000001
0.12300263 -0.059698343 0.46000001
0.12380395 -0.059698343 0.46000001
0.12460527 -0.059698343 0.46000001
0.12540659 -0.059698343 0.46000001
0.1262079 -0.059698343 0.46000001
0.12700923 -0.059698343 0.46000001
0.045074254 -0.057616655 0.45000002
0.045858152 -0.057616655 0.45000002
0.046538405 -0.057488617 0.44900003
0.047320563 -0.057488617 0.44900003
0.095540866 -0.061329726 0.47900003
0.096375287 -0.061329726 0.47900003
0.097006761 -0.061201692 0.47800002
0.097839437 -0.061201692 0.47800002
0.098465689 -0.061073653 0.47700003
0.099088453 -0.060945615 0.47600001
0.099917643 -0.060945615 0.47600001
0.10053518 -0.060817577 0.47500002
0.10114924 -0.060689542 0.47400004
0.10197494 -0.060689542 0.47400004
0.10258377 -0.060561504 0.47300002
0.10318912 -0.060433466 0.47200003
0.10379098 -0.060305431 0.47100002
0.10438935 -0.060177393 0.47000003
0.10498425 -0.060049355 0.46900001
0.10557566 -0.059921321 0.46800002
0.10616358 -0.059793282 0.46700001
0.10674802 -0.059665244 0.46600002
0.1075598 -0.059665244 0.46600002
0.10813901 -0.05953721 0.46500003
0.10848045 -0.059281133 0.46300003
0.10928699 -0.059281133 0.46300003
0.10985576 -0.059153099 0.46200001
0.11042103 -0.05902506 0.46100003
0.11122409 -0.05902506 0.46100003
0.11178415 -0.058897022 0.46000001
0.11258547 -0.058897022 0.46000001
0.11314029 -0.058768988 0.45900002
0.11393987 -0.058768988 0.45900002
0.11473945 -0.058768988 0.45900002
0.11528731 -0.058640949 0.45800003
0.11608514 -0.058640949 0.45800003
0.11688298 -0.058640949 0.45800003
0.11768082 -0.058640949 0.45800003
0.11847866 -0.058640949 0.45800003
0.11927649 -0.058640949 0.45800003
0.1203365 -0.058768988 0.45900002
0.12113608 -0.058768988 0.45900002
0.12193565 -0.058768988 0.45900002
0.12273523 -0.058768988 0.45900002
0.12380395 -0.058897022 0.46000001
0.12460527 -0.058897022 0.46000001
0.12540659 -0.058897022 0.46000001
0.1262079 -0.058897022 0.46000001
0.12700923 -0.058897022 0.46000001
0.042722553 -0.056832753 0.45000002
0.043506451 -0.056832753 0.45000002
0.044290353 -0.056832753 0.45000002
0.045074254 -0.056832753 0.45000002
0.045858152 -0.056832753 0.45000002
0.046538405 -0.056706458 0.44900003
0.095341407 -0.060369015 0.47800002
0.096174084 -0.060369015 0.47800002
0.097006761 -0.060369015 0.47800002
0.097839437 -0.060369015 0.47800002
0.098465689 -0.06024272 0.47700003
0.099088453 -0.060116425 0.47600001
0.09970773 -0.05999013 0.47500002
0.10032353 -0.059863836 0.47400004
0.10114924 -0.059863836 0.47400004
0.10175981 -0.059737537 0.47300002
0.10236689 -0.059611242 0.47200003
0.10318912 -0.059611242 0.47200003
0.10379098 -0.059484947 0.47100002
0.10438935 -0.059358653 0.47000003
0.10498425 -0.059232358 0.46900001
0.10557566 -0.059106063 0.46800002
0.10616358 -0.058979768 0.46700001
0.10674802 -0.058853474 0.46600002
0.1075598 -0.058853474 0.46600002
0.10813901 -0.058727179 0.46500003
0.10848045 -0.058474589 0.46300003
0.10928699 -0.058474589 0.46300003
0.10985576 -0.058348294 0.46200001
0.11042103 -0.058222 0.46100003
0.11122409 -0.058222 0.46100003
0.11178415 -0.058095705 0.46000001
0.11258547 -0.058095705 0.46000001
0.11314029 -0.05796941 0.45900002
0.11369164 -0.057843115 0.45800003
0.11448947 -0.057843115 0.45800003
0.11528731 -0.057843115 0.45800003
0.11583168 -0.05771682 0.45700002
0.11662778 -0.05771682 0.45700002
0.11742387 -0.05771682 0.45700002
0.11847866 -0.057843115 0.45800003
0.11927649 -0.057843115 0.45800003
0.12007432 -0.057843115 0.45800003
0.12087216 -0.057843115 0.45800003
0.12193565 -0.05796941 0.45900002
0.12273523 -0.05796941 0.45900002
0.12353481 -0.05796941 0.45900002
0.12433439 -0.05796941 0.45900002
0.12513396 -0.05796941 0.45900002
0.12593354 -0.05796941 0.45900002
0.041938651 -0.056048855 0.45000002
0.042722553 -0.056048855 0.45000002
0.043506451 -0.056048855 0.45000002
0.044290353 -0.056048855 0.45000002
0.045074254 -0.056048855 0.45000002
0.045756247 -0.0559243 0.44900003
0.046538405 -0.0559243 0.44900003
0.047320563 -0.0559243 0.44900003
0.048102722 -0.0559243 0.44900003
0.04888488 -0.0559243 0.44900003
0.049667034 -0.0559243 0.44900003
0.050561555 -0.056048855 0.45000002
0.051459555 -0.056173407 0.45100003
0.052245196 -0.056173407 0.45100003
0.053148422 -0.056297958 0.45200002
0.054481052 -0.056048855 0.45000002
0.09450873 -0.059536338 0.47800002
0.095341407 -0.059536338 0.47800002
0.096174084 -0.059536338 0.47800002
0.097006761 -0.059536338 0.47800002
0.097634748 -0.059411786 0.47700003
0.098259255 -0.059287231 0.47600001
0.098880284 -0.05916268 0.47500002
0.099497817 -0.059038125 0.47400004
0.10032353 -0.059038125 0.47400004
0.10093584 -0.058913574 0.47300002
0.10154467 -0.058789019 0.47200003
0.10236689 -0.058789019 0.47200003
0.10318912 -0.058789019 0.47200003
0.10379098 -0.058664467 0.47100002
0.10438935 -0.058539912 0.47000003
0.10498425 -0.058415361 0.46900001
0.10557566 -0.058290809 0.46800002
0.10616358 -0.058166254 0.46700001
0.10674802 -0.058041703 0.46600002
0.10732898 -0.057917148 0.46500003
0.10813901 -0.057917148 0.46500003
0.10848045 -0.057668041 0.46300003
0.10928699 -0.057668041 0.46300003
0.10985576 -0.05754349 0.46200001
0.11042103 -0.057418935 0.46100003
0.11122409 -0.057418935 0.46100003
0.11178415 -0.057294384 0.46000001
0.11234072 -0.057169832 0.45900002
0.1128938 -0.057045277 0.45800003
0.11369164 -0.057045277 0.45800003
0.1142395 -0.056920726 0.45700002
0.11503559 -0.056920726 0.45700002
0.11583168 -0.056920726 0.45700002
0.11662778 -0.056920726 0.45700002
0.11742387 -0.056920726 0.45700002
0.11821996 -0.056920726 0.45700002
0.11927649 -0.057045277 0.45800003
0.12007432 -0.057045277 0.45800003
0.12087216 -0.057045277 0.45800003
0.12193565 -0.057169832 0.45900002
0.12273523 -0.057169832 0.45900002
0.12380395 -0.057294384 0.46000001
0.12433439 -0.057169832 0.45900002
0.12540659 -0.057294384 0.46000001
0.1262079 -0.057294384 0.46000001
0.039586954 -0.055264954 0.45000002
0.040370852 -0.055264954 0.45000002
0.041063298 -0.055142142 0.44900003
0.041938651 -0.055264954 0.45000002
0.042722553 -0.055264954 0.45000002
0.043506451 -0.055264954 0.45000002
0.044290353 -0.055264954 0.45000002
0.044974089 -0.055142142 0.44900003
0.045756247 -0.055142142 0.44900003
0.046538405 -0.055142142 0.44900003
0.047320563 -0.055142142 0.44900003
0.048102722 -0.055142142 0.44900003
0.04888488 -0.055142142 0.44900003
0.049667034 -0.055142142 0.44900003
0.050449193 -0.055142142 0.44900003
0.051345453 -0.055264954 0.45000002
0.052129354 -0.055264954 0.45000002
0.053030837 -0.055387765 0.45100003
0.053697154 -0.055264954 0.45000002
0.092010707 -0.058703661 0.47800002
0.093676053 -0.058703661 0.47800002
0.09450873 -0.058703661 0.47800002
0.095341407 -0.058703661 0.47800002
0.096174084 -0.058703661 0.47800002
0.097006761 -0.058703661 0.47800002
0.097430065 -0.058458041 0.47600001
0.098259255 -0.058458041 0.47600001
0.098880284 -0.05833523 0.47500002
0.099497817 -0.058212418 0.47400004
0.10032353 -0.058212418 0.47400004
0.10093584 -0.058089606 0.47300002
0.10154467 -0.057966795 0.47200003
0.10236689 -0.057966795 0.47200003
0.10318912 -0.057966795 0.47200003
0.10379098 -0.057843983 0.47100002
0.10438935 -0.057721175 0.47000003
0.1047604 -0.057475552 0.46800002
0.10557566 -0.057475552 0.46800002
0.10616358 -0.05735274 0.46700001
0.10674802 -0.057229929 0.46600002
0.10732898 -0.057107117 0.46500003
0.10790645 -0.056984309 0.46400002
0.10848045 -0.056861497 0.46300003
0.10928699 -0.056861497 0.46300003
0.10961797 -0.056615874 0.46100003
0.11042103 -0.056615874 0.46100003
0.11098283 -0.056493063 0.46000001
0.11178415 -0.056493063 0.46000001
0.11234072 -0.056370251 0.45900002
0.1128938 -0.056247443 0.45800003
0.1134434 -0.056124631 0.45700002
0.1142395 -0.056124631 0.45700002
0.11503559 -0.056124631 0.45700002
0.11583168 -0.056124631 0.45700002
0.11662778 -0.056124631 0.45700002
0.11742387 -0.056124631 0.45700002
0.11821996 -0.056124631 0.45700002
0.11927649 -0.056247443 0.45800003
0.12007432 -0.056247443 0.45800003
0.12113608 -0.056370251 0.45900002
0.12193565 -0.056370251 0.45900002
0.12273523 -0.056370251 0.45900002
0.12380395 -0.056493063 0.46000001
0.12460527 -0.056493063 0.46000001
0.12540659 -0.056493063 0.46000001
0.1262079 -0.056493063 0.46000001
0.12728533 -0.056615874 0.46100003
0.039586954 -0.054481052 0.45000002
0.040370852 -0.054481052 0.45000002
0.041063298 -0.054359984 0.44900003
0.041845456 -0.054359984 0.44900003
0.042627614 -0.054359984 0.44900003
0.043409772 -0.054359984 0.44900003
0.04419193 -0.054359984 0.44900003
0.044974089 -0.054359984 0.44900003
0.045756247 -0.054359984 0.44900003
0.046538405 -0.054359984 0.44900003
0.047320563 -0.054359984 0.44900003
0.048102722 -0.054359984 0.44900003
0.04888488 -0.054359984 0.44900003
0.049667034 -0.054359984 0.44900003
0.050449193 -0.054359984 0.44900003
0.051231351 -0.054359984 0.44900003
0.052013509 -0.054359984 0.44900003
0.052795667 -0.054359984 0.44900003
0.053577825 -0.054359984 0.44900003
0.055426087 -0.053875707 0.44500002
0.089512676 -0.057870984 0.47800002
0.092843376 -0.057870984 0.47800002
0.093676053 -0.057870984 0.47800002
0.09450873 -0.057870984 0.47800002
0.095341407 -0.057870984 0.47800002
0.095972881 -0.057749916 0.47700003
0.096803814 -0.057749916 0.47700003
0.097430065 -0.057628848 0.47600001
0.09805283 -0.057507779 0.47500002
0.098672114 -0.057386711 0.47400004
0.099497817 -0.057386711 0.47400004
0.10011187 -0.057265639 0.47300002
0.10093584 -0.057265639 0.47300002
0.10154467 -0.057144571 0.47200003
0.10236689 -0.057144571 0.47200003
0.10318912 -0.057144571 0.47200003
0.10379098 -0.057023503 0.47100002
0.10416725 -0.056781363 0.46900001
0.1047604 -0.056660295 0.46800002
0.10535007 -0.056539226 0.46700001
0.10593625 -0.056418158 0.46600002
0.10674802 -0.056418158 0.46600002
0.10732898 -0.05629709 0.46500003
0.10790645 -0.056176018 0.46400002
0.10848045 -0.05605495 0.46300003
0.10928699 -0.05605495 0.46300003
0.10961797 -0.055812813 0.46100003
0.11042103 -0.055812813 0.46100003
0.11098283 -0.055691745 0.46000001
0.11178415 -0.055691745 0.46000001
0.11209597 -0.055449605 0.45800003
0.1128938 -0.055449605 0.45800003
0.1134434 -0.055328537 0.45700002
0.1142395 -0.055328537 0.45700002
0.11503559 -0.055328537 0.45700002
0.11583168 -0.055328537 0.45700002
0.11662778 -0.055328537 0.45700002
0.11742387 -0.055328537 0.45700002
0.11821996 -0.055328537 0.45700002
0.11927649 -0.055449605 0.45800003
0.12007432 -0.055449605 0.45800003
0.12113608 -0.055570673 0.45900002
0.12193565 -0.055570673 0.45900002
0.12300263 -0.055691745 0.46000001
0.12380395 -0.055691745 0.46000001
0.12460527 -0.055691745 0.46000001
0.12540659 -0.055691745 0.46000001
0.12648228 -0.055812813 0.46100003
0.037934665 -0.053577825 0.44900003
0.038716823 -0.053577825 0.44900003
0.039498981 -0.053577825 0.44900003
0.040370852 -0.053697154 0.45000002
0.041063298 -0.053577825 0.44900003
0.041845456 -0.053577825 0.44900003
0.042627614 -0.053577825 0.44900003
0.043409772 -0.053577825 0.44900003
0.04419193 -0.053577825 0.44900003
0.044974089 -0.053577825 0.44900003
0.045756247 -0.053577825 0.44900003
0.046538405 -0.053577825 0.44900003
0.047320563 -0.053577825 0.44900003
0.048102722 -0.053577825 0.44900003
0.04888488 -0.053577825 0.44900003
0.049667034 -0.053577825 0.44900003
0.050336834 -0.053458501 0.44800001
0.051117253 -0.053458501 0.44800001
0.052013509 -0.053577825 0.44900003
0.052795667 -0.053577825 0.44900003
0.053577825 -0.053577825 0.44900003
0.054117847 -0.053339172 0.44700003
0.054650899 -0.053100519 0.44500002
0.056580164 -0.053458501 0.44800001
0.089512676 -0.057038311 0.47800002
0.090345353 -0.057038311 0.47800002
0.092010707 -0.057038311 0.47800002
0.092843376 -0.057038311 0.47800002
0.093676053 -0.057038311 0.47800002
0.09450873 -0.057038311 0.47800002
0.095341407 -0.057038311 0.47800002
0.095972881 -0.056918982 0.47700003
0.096600875 -0.056799654 0.47600001
0.097430065 -0.056799654 0.47600001
0.097846404 -0.056561001 0.47400004
0.098672114 -0.056561001 0.47400004
0.099497817 -0.056561001 0.47400004
0.10011187 -0.056441676 0.47300002
0.10072245 -0.056322347 0.47200003
0.10154467 -0.056322347 0.47200003
0.10236689 -0.056322347 0.47200003
0.1029705 -0.056203019 0.47100002
0.10357062 -0.056083694 0.47000003
0.10394514 -0.055845041 0.46800002
0.1047604 -0.055845041 0.46800002
0.10535007 -0.055725712 0.46700001
0.10593625 -0.055606384 0.46600002
0.10674802 -0.055606384 0.46600002
0.10732898 -0.055487059 0.46500003
0.10790645 -0.055367731 0.46400002
0.10848045 -0.055248406 0.46300003
0.10905095 -0.055129077 0.46200001
0.10961797 -0.055009749 0.46100003
0.11042103 -0.055009749 0.46100003
0.11098283 -0.054890424 0.46000001
0.11154114 -0.054771096 0.45900002
0.11209597 -0.054651771 0.45800003
0.1128938 -0.054651771 0.45800003
0.1134434 -0.054532442 0.45700002
0.1142395 -0.054532442 0.45700002
0.11503559 -0.054532442 0.45700002
0.11583168 -0.054532442 0.45700002
0.11662778 -0.054532442 0.45700002
0.11742387 -0.054532442 0.45700002
0.11821996 -0.054532442 0.45700002
0.11927649 -0.054651771 0.45800003
0.12007432 -0.054651771 0.45800003
0.12113608 -0.054771096 0.45900002
0.12220131 -0.054890424 0.46000001
0.12300263 -0.054890424 0.46000001
0.12380395 -0.054890424 0.46000001
0.12487615 -0.055009749 0.46100003
0.12567921 -0.055009749 0.46100003
0.12648228 -0.055009749 0.46100003
0.037934665 -0.052795667 0.44900003
0.038716823 -0.052795667 0.44900003
0.039498981 -0.052795667 0.44900003
0.040281139 -0.052795667 0.44900003
0.041063298 -0.052795667 0.44900003
0.041845456 -0.052795667 0.44900003
0.042532675 -0.052678082 0.44800001
0.04331309 -0.052678082 0.44800001
0.044093508 -0.052678082 0.44800001
0.044873923 -0.052678082 0.44800001
0.045654338 -0.052678082 0.44800001
0.046434756 -0.052678082 0.44800001
0.047215171 -0.052678082 0.44800001
0.047995586 -0.052678082 0.44800001
0.048776004 -0.052678082 0.44800001
0.049556419 -0.052678082 0.44800001
0.050336834 -0.052678082 0.44800001
0.051117253 -0.052678082 0.44800001
0.051897667 -0.052678082 0.44800001
0.052678082 -0.052678082 0.44800001
0.053458501 -0.052678082 0.44800001
0.054117847 -0.052560497 0.44700003
0.054896519 -0.052560497 0.44700003
0.055799749 -0.052678082 0.44800001
0.056580164 -0.052678082 0.44800001
0.057232544 -0.052560497 0.44700003
0.087014645 -0.056205634 0.47800002
0.087847322 -0.056205634 0.47800002
0.088679999 -0.056205634 0.47800002
0.089512676 -0.056205634 0.47800002
0.090345353 -0.056205634 0.47800002
0.09117803 -0.056205634 0.47800002
0.092010707 -0.056205634 0.47800002
0.092843376 -0.056205634 0.47800002
0.093676053 -0.056205634 0.47800002
0.094311014 -0.056088049 0.47700003
0.095141947 -0.056088049 0.47700003
0.095771685 -0.055970464 0.47600001
0.096600875 -0.055970464 0.47600001
0.097225383 -0.055852879 0.47500002
0.097846404 -0.055735294 0.47400004
0.098463945 -0.055617709 0.47300002
0.099287912 -0.055617709 0.47300002
0.099900223 -0.055500124 0.47200003
0.10072245 -0.055500124 0.47200003
0.10154467 -0.055500124 0.47200003
0.10236689 -0.055500124 0.47200003
0.1029705 -0.055382539 0.47100002
0.10357062 -0.055264954 0.47000003
0.10394514 -0.055029783 0.46800002
0.1047604 -0.055029783 0.46800002
0.10535007 -0.054912198 0.46700001
0.10593625 -0.054794613 0.46600002
0.10674802 -0.054794613 0.46600002
0.10732898 -0.054677028 0.46500003
0.10790645 -0.054559443 0.46400002
0.10848045 -0.054441858 0.46300003
0.10905095 -0.054324273 0.46200001
0.10961797 -0.054206688 0.46100003
0.11042103 -0.054206688 0.46100003
0.11098283 -0.054089103 0.46000001
0.11129813 -0.053853933 0.45800003
0.11209597 -0.053853933 0.45800003
0.11264731 -0.053736348 0.45700002
0.1134434 -0.053736348 0.45700002
0.1142395 -0.053736348 0.45700002
0.11503559 -0.053736348 0.45700002
0.11583168 -0.053736348 0.45700002
0.11662778 -0.053736348 0.45700002
0.11742387 -0.053736348 0.45700002
0.11847866 -0.053853933 0.45800003
0.11927649 -0.053853933 0.45800003
0.1203365 -0.053971518 0.45900002
0.12139999 -0.054089103 0.46000001
0.12220131 -0.054089103 0.46000001
0.12300263 -0.054089103 0.46000001
0.12407309 -0.054206688 0.46100003
0.12487615 -0.054206688 0.46100003
0.12567921 -0.054206688 0.46100003
0.12648228 -0.054206688 0.46100003
0.12756144 -0.054324273 0.46200001
0.037152506 -0.052013509 0.44900003
0.037934665 -0.052013509 0.44900003
0.038716823 -0.052013509 0.44900003
0.039498981 -0.052013509 0.44900003
0.040281139 -0.052013509 0.44900003
0.041063298 -0.052013509 0.44900003
0.04175226 -0.051897667 0.44800001
0.042532675 -0.051897667 0.44800001
0.04331309 -0.051897667 0.44800001
0.044093508 -0.051897667 0.44800001
0.044873923 -0.051897667 0.44800001
0.045654338 -0.051897667 0.44800001
0.046434756 -0.051897667 0.44800001
0.047215171 -0.051897667 0.44800001
0.047995586 -0.051897667 0.44800001
0.048776004 -0.051897667 0.44800001
0.049556419 -0.051897667 0.44800001
0.050224476 -0.051781826 0.44700003
0.051003151 -0.051781826 0.44700003
0.051781826 -0.051781826 0.44700003
0.052678082 -0.051897667 0.44800001
0.053458501 -0.051897667 0.44800001
0.053996779 -0.05166598 0.44600001
0.054773711 -0.05166598 0.44600001
0.055675194 -0.051781826 0.44700003
0.056453869 -0.051781826 0.44700003
0.057232544 -0.051781826 0.44700003
0.057881437 -0.05166598 0.44600001
0.086181968 -0.055372957 0.47800002
0.087014645 -0.055372957 0.47800002
0.087847322 -0.055372957 0.47800002
0.088679999 -0.055372957 0.47800002
0.089512676 -0.055372957 0.47800002
0.090345353 -0.055372957 0.47800002
0.09117803 -0.055372957 0.47800002
0.092010707 -0.055372957 0.47800002
0.092843376 -0.055372957 0.47800002
0.09348008 -0.055257116 0.47700003
0.094311014 -0.055257116 0.47700003
0.094942488 -0.05514127 0.47600001
0.095771685 -0.05514127 0.47600001
0.096397929 -0.055025429 0.47500002
0.097020693 -0.054909587 0.47400004
0.097846404 -0.054909587 0.47400004
0.098463945 -0.054793742 0.47300002
0.099078 -0.0546779 0.47200003
0.099900223 -0.0546779 0.47200003
0.10072245 -0.0546779 0.47200003
0.10154467 -0.0546779 0.47200003
0.10215002 -0.054562055 0.47100002
0.10275187 -0.054446213 0.47000003
0.10335025 -0.054330371 0.46900001
0.10394514 -0.054214526 0.46800002
0.10453656 -0.054098684 0.46700001
0.10512448 -0.053982843 0.46600002
0.10593625 -0.053982843 0.46600002
0.10651895 -0.053866997 0.46500003
0.10732898 -0.053866997 0.46500003
0.1076739 -0.053635314 0.46300003
0.10848045 -0.053635314 0.46300003
0.10905095 -0.053519469 0.46200001
0.10961797 -0.053403627 0.46100003
0.11042103 -0.053403627 0.46100003
0.11098283 -0.053287782 0.46000001
0.11154114 -0.05317194 0.45900002
0.11209597 -0.053056099 0.45800003
0.1128938 -0.053056099 0.45800003
0.1134434 -0.052940253 0.45700002
0.1142395 -0.052940253 0.45700002
0.11503559 -0.052940253 0.45700002
0.11583168 -0.052940253 0.45700002
0.11662778 -0.052940253 0.45700002
0.11768082 -0.053056099 0.45800003
0.11847866 -0.053056099 0.45800003
0.11953692 -0.05317194 0.45900002
0.12059867 -0.053287782 0.46000001
0.12139999 -0.053287782 0.46000001
0.12246696 -0.053403627 0.46100003
0.12327003 -0.053403627 0.46100003
0.12407309 -0.053403627 0.46100003
0.12514703 -0.053519469 0.46200001
0.12595183 -0.053519469 0.46200001
0.12675664 -0.053519469 0.46200001
0.12783755 -0.053635314 0.46300003
0.037152506 -0.051231351 0.44900003
0.037934665 -0.051231351 0.44900003
0.038716823 -0.051231351 0.44900003
0.039498981 -0.051231351 0.44900003
0.040281139 -0.051231351 0.44900003
0.040971842 -0.051117253 0.44800001
0.04175226 -0.051117253 0.44800001
0.042437736 -0.051003151 0.44700003
0.043119729 -0.050889049 0.44600001
0.04389666 -0.050889049 0.44600001
0.044673592 -0.050889049 0.44600001
0.045450523 -0.050889049 0.44600001
0.046227455 -0.050889049 0.44600001
0.047004391 -0.050889049 0.44600001
0.047781322 -0.050889049 0.44600001
0.048667129 -0.051003151 0.44700003
0.049335185 -0.050889049 0.44600001
0.050112117 -0.050889049 0.44600001
0.050889049 -0.050889049 0.44600001
0.05166598 -0.050889049 0.44600001
0.052560497 -0.051003151 0.44700003
0.053219844 -0.050889049 0.44600001
0.053996779 -0.050889049 0.44600001
0.054773711 -0.050889049 0.44600001
0.055550642 -0.050889049 0.44600001
0.056327574 -0.050889049 0.44600001
0.057104506 -0.050889049 0.44600001
0.057881437 -0.050889049 0.44600001
0.084516622 -0.05454028 0.47800002
0.085349299 -0.05454028 0.47800002
0.086181968 -0.05454028 0.47800002
0.087014645 -0.05454028 0.47800002
0.087847322 -0.05454028 0.47800002
0.088679999 -0.05454028 0.47800002
0.089512676 -0.05454028 0.47800002
0.090345353 -0.05454028 0.47800002
0.09117803 -0.05454028 0.47800002
0.092010707 -0.05454028 0.47800002
0.092649147 -0.054426182 0.47700003
0.09348008 -0.054426182 0.47700003
0.094113298 -0.05431208 0.47600001
0.094942488 -0.05431208 0.47600001
0.095570482 -0.054197978 0.47500002
0.09619499 -0.054083876 0.47400004
0.097020693 -0.054083876 0.47400004
0.097639978 -0.053969778 0.47300002
0.098255776 -0.053855676 0.47200003
0.099078 -0.053855676 0.47200003
0.099900223 -0.053855676 0.47200003
0.10072245 -0.053855676 0.47200003
0.10154467 -0.053855676 0.47200003
0.10193314 -0.053627472 0.47000003
0.10275187 -0.053627472 0.47000003
0.10335025 -0.053513374 0.46900001
0.10394514 -0.053399272 0.46800002
0.10453656 -0.05328517 0.46700001
0.10512448 -0.053171068 0.46600002
0.10593625 -0.053171068 0.46600002
0.10651895 -0.053056967 0.46500003
0.10732898 -0.053056967 0.46500003
0.1076739 -0.052828766 0.46300003
0.10848045 -0.052828766 0.46300003
0.10905095 -0.052714664 0.46200001
0.10961797 -0.052600563 0.46100003
0.11042103 -0.052600563 0.46100003
0.11098283 -0.052486464 0.46000001
0.11154114 -0.052372362 0.45900002
0.11209597 -0.052258261 0.45800003
0.1128938 -0.052258261 0.45800003
0.1134434 -0.052144159 0.45700002
0.1142395 -0.052144159 0.45700002
0.11503559 -0.052144159 0.45700002
0.11583168 -0.052144159 0.45700002
0.11688298 -0.052258261 0.45800003
0.11768082 -0.052258261 0.45800003
0.11873734 -0.052372362 0.45900002
0.11979735 -0.052486464 0.46000001
0.12059867 -0.052486464 0.46000001
0.1216639 -0.052600563 0.46100003
0.12246696 -0.052600563 0.46100003
0.12353742 -0.052714664 0.46200001
0.12434223 -0.052714664 0.46200001
0.12514703 -0.052714664 0.46200001
0.12595183 -0.052714664 0.46200001
0.127031 -0.052828766 0.46300003
0.12783755 -0.052828766 0.46300003
0.037152506 -0.050449193 0.44900003
0.037934665 -0.050449193 0.44900003
0.038716823 -0.050449193 0.44900003
0.039411012 -0.050336834 0.44800001
0.040191427 -0.050336834 0.44800001
0.040971842 -0.050336834 0.44800001
0.041659061 -0.050224476 0.44700003
0.042342797 -0.050112117 0.44600001
0.043119729 -0.050112117 0.44600001
0.043798238 -0.049999759 0.44500002
0.044573426 -0.049999759 0.44500002
0.045246709 -0.0498874 0.44400004
0.046020158 -0.0498874 0.44400004
0.046793606 -0.0498874 0.44400004
0.047567055 -0.0498874 0.44400004
0.048449378 -0.049999759 0.44500002
0.049224567 -0.049999759 0.44500002
0.049999759 -0.049999759 0.44500002
0.050774947 -0.049999759 0.44500002
0.051550139 -0.049999759 0.44500002
0.052442912 -0.050112117 0.44600001
0.053219844 -0.050112117 0.44600001
0.053875707 -0.049999759 0.44500002
0.054650899 -0.049999759 0.44500002
0.055426087 -0.049999759 0.44500002
0.056327574 -0.050112117 0.44600001
0.056976467 -0.049999759 0.44500002
0.057751659 -0.049999759 0.44500002
0.084516622 -0.053707607 0.47800002
0.085349299 -0.053707607 0.47800002
0.086181968 -0.053707607 0.47800002
0.087014645 -0.053707607 0.47800002
0.087847322 -0.053707607 0.47800002
0.088679999 -0.053707607 0.47800002
0.089512676 -0.053707607 0.47800002
0.090345353 -0.053707607 0.47800002
0.09117803 -0.053707607 0.47800002
0.092010707 -0.053707607 0.47800002
0.092843376 -0.053707607 0.47800002
0.093676053 -0.053707607 0.47800002
0.094113298 -0.053482886 0.47600001
0.094942488 -0.053482886 0.47600001
0.095570482 -0.053370528 0.47500002
0.09619499 -0.053258169 0.47400004
0.097020693 -0.053258169 0.47400004
0.097639978 -0.053145811 0.47300002
0.098255776 -0.053033452 0.47200003
0.099078 -0.053033452 0.47200003
0.099900223 -0.053033452 0.47200003
0.10050905 -0.052921094 0.47100002
0.10132954 -0.052921094 0.47100002
0.10193314 -0.052808732 0.47000003
0.10231464 -0.052584015 0.46800002
0.10312989 -0.052584015 0.46800002
0.10372304 -0.052471656 0.46700001
0.10431271 -0.052359298 0.46600002
0.10512448 -0.052359298 0.46600002
0.10593625 -0.052359298 0.46600002
0.10651895 -0.052246939 0.46500003
0.10709817 -0.052134581 0.46400002
0.1076739 -0.052022219 0.46300003
0.10824615 -0.05190986 0.46200001
0.10881491 -0.051797502 0.46100003
0.10961797 -0.051797502 0.46100003
0.11018151 -0.051685143 0.46000001
0.11098283 -0.051685143 0.46000001
0.11154114 -0.051572785 0.45900002
0.11209597 -0.051460426 0.45800003
0.1128938 -0.051460426 0.45800003
0.1134434 -0.051348068 0.45700002
0.1142395 -0.051348068 0.45700002
0.11503559 -0.051348068 0.45700002
0.11583168 -0.051348068 0.45700002
0.11688298 -0.051460426 0.45800003
0.11793777 -0.051572785 0.45900002
0.11899602 -0.051685143 0.46000001
0.11979735 -0.051685143 0.46000001
0.12086084 -0.051797502 0.46100003
0.1216639 -0.051797502 0.46100003
0.12273262 -0.05190986 0.46200001
0.12353742 -0.05190986 0.46200001
0.12461136 -0.052022219 0.46300003
0.12541792 -0.052022219 0.46300003
0.12622446 -0.052022219 0.46300003
0.127031 -0.052022219 0.46300003
0.12783755 -0.052022219 0.46300003
0.037152506 -0.049667034 0.44900003
0.037934665 -0.049667034 0.44900003
0.038716823 -0.049667034 0.44900003
0.039411012 -0.049556419 0.44800001
0.040191427 -0.049556419 0.44800001
0.040880386 -0.0494458 0.44700003
0.041659061 -0.0494458 0.44700003
0.042342797 -0.049335185 0.44600001
0.043023046 -0.049224567 0.44500002
0.043798238 -0.049224567 0.44500002
0.044473264 -0.049113952 0.44400004
0.045246709 -0.049113952 0.44400004
0.045916509 -0.049003333 0.44300002
0.046688218 -0.049003333 0.44300002
0.047459923 -0.049003333 0.44300002
0.048340503 -0.049113952 0.44400004
0.049113952 -0.049113952 0.44400004
0.049775042 -0.049003333 0.44300002
0.050660849 -0.049113952 0.44400004
0.051434293 -0.049113952 0.44400004
0.052325327 -0.049224567 0.44500002
0.053100519 -0.049224567 0.44500002
0.053875707 -0.049224567 0.44500002
0.054650899 -0.049224567 0.44500002
0.055426087 -0.049224567 0.44500002
0.056201279 -0.049224567 0.44500002
0.056848433 -0.049113952 0.44400004
0.057621881 -0.049113952 0.44400004
0.058395326 -0.049113952 0.44400004
0.059035514 -0.049003333 0.44300002
0.059672214 -0.048892718 0.44200003
0.080353238 -0.05287493 0.47800002
0.081185915 -0.05287493 0.47800002
0.082018591 -0.05287493 0.47800002
0.082851268 -0.05287493 0.47800002
0.083683945 -0.05287493 0.47800002
0.084516622 -0.05287493 0.47800002
0.085349299 -0.05287493 0.47800002
0.086001672 -0.052764311 0.47700003
0.087014645 -0.05287493 0.47800002
0.087847322 -0.05287493 0.47800002
0.088679999 -0.05287493 0.47800002
0.089512676 -0.05287493 0.47800002
0.090156347 -0.052764311 0.47700003
0.09098728 -0.052764311 0.47700003
0.091818213 -0.052764311 0.47700003
0.092649147 -0.052764311 0.47700003
0.093284108 -0.052653696 0.47600001
0.093915582 -0.052543078 0.47500002
0.094743028 -0.052543078 0.47500002
0.095369279 -0.052432463 0.47400004
0.09619499 -0.052432463 0.47400004
0.096816011 -0.052321844 0.47300002
0.097433552 -0.052211229 0.47200003
0.098255776 -0.052211229 0.47200003
0.099078 -0.052211229 0.47200003
0.099688567 -0.05210061 0.47100002
0.10029566 -0.051989995 0.47000003
0.1011144 -0.051989995 0.47000003
0.10171626 -0.051879376 0.46900001
0.10231464 -0.051768757 0.46800002
0.10290953 -0.051658142 0.46700001
0.10372304 -0.051658142 0.46700001
0.10431271 -0.051547524 0.46600002
0.10512448 -0.051547524 0.46600002
0.10570892 -0.051436909 0.46500003
0.10628988 -0.05132629 0.46400002
0.10686735 -0.051215675 0.46300003
0.1076739 -0.051215675 0.46300003
0.10824615 -0.051105056 0.46200001
0.10881491 -0.050994441 0.46100003
0.10961797 -0.050994441 0.46100003
0.11018151 -0.050883822 0.46000001
0.11074156 -0.050773207 0.45900002
0.11154114 -0.050773207 0.45900002
0.11209597 -0.050662588 0.45800003
0.1128938 -0.050662588 0.45800003
0.11369164 -0.050662588 0.45800003
0.11448947 -0.050662588 0.45800003
0.11528731 -0.050662588 0.45800003
0.11608514 -0.050662588 0.45800003
0.11713818 -0.050773207 0.45900002
0.11819471 -0.050883822 0.46000001
0.11899602 -0.050883822 0.46000001
0.12005778 -0.050994441 0.46100003
0.12086084 -0.050994441 0.46100003
0.12192781 -0.051105056 0.46200001
0.12299827 -0.051215675 0.46300003
0.12380482 -0.051215675 0.46300003
0.12461136 -0.051215675 0.46300003
0.12541792 -0.051215675 0.46300003
0.12622446 -0.051215675 0.46300003
0.12730537 -0.05132629 0.46400002
0.12811366 -0.05132629 0.46400002
0.037934665 -0.04888488 0.44900003
0.038716823 -0.04888488 0.44900003
0.039411012 -0.048776004 0.44800001
0.040191427 -0.048776004 0.44800001
0.040880386 -0.048667129 0.44700003
0.041565865 -0.048558254 0.44600001
0.042247858 -0.048449378 0.44500002
0.043023046 -0.048449378 0.44500002
0.043699816 -0.048340503 0.44400004
0.044473264 -0.048340503 0.44400004
0.045144804 -0.048231628 0.44300002
0.04581286 -0.048122752 0.44200003
0.046582825 -0.048122752 0.44200003
0.047352787 -0.048122752 0.44200003
0.048231628 -0.048231628 0.44300002
0.048892718 -0.048122752 0.44200003
0.049662679 -0.048122752 0.44200003
0.050432645 -0.048122752 0.44200003
0.051318452 -0.048231628 0.44300002
0.052090157 -0.048231628 0.44300002
0.05298119 -0.048340503 0.44400004
0.053754639 -0.048340503 0.44400004
0.054528087 -0.048340503 0.44400004
0.055301536 -0.048340503 0.44400004
0.05594869 -0.048231628 0.44300002
0.056720395 -0.048231628 0.44300002
0.0574921 -0.048231628 0.44300002
0.058263808 -0.048231628 0.44300002
0.058902249 -0.048122752 0.44200003
0.059672214 -0.048122752 0.44200003
0.060442179 -0.048122752 0.44200003
0.076861396 -0.051933378 0.47700003
0.077692337 -0.051933378 0.47700003
0.078523271 -0.051933378 0.47700003
0.079520561 -0.052042253 0.47800002
0.080353238 -0.052042253 0.47800002
0.081185915 -0.052042253 0.47800002
0.082018591 -0.052042253 0.47800002
0.082677938 -0.051933378 0.47700003
0.083508871 -0.051933378 0.47700003
0.084516622 -0.052042253 0.47800002
0.085170738 -0.051933378 0.47700003
0.086001672 -0.051933378 0.47700003
0.087014645 -0.052042253 0.47800002
0.087847322 -0.052042253 0.47800002
0.08849448 -0.051933378 0.47700003
0.089325413 -0.051933378 0.47700003
0.090156347 -0.051933378 0.47700003
0.09098728 -0.051933378 0.47700003
0.091818213 -0.051933378 0.47700003
0.09245491 -0.051824503 0.47600001
0.093088128 -0.051715627 0.47500002
0.093717866 -0.051606752 0.47400004
0.094543569 -0.051606752 0.47400004
0.095369279 -0.051606752 0.47400004
0.095992044 -0.051497877 0.47300002
0.096611328 -0.051389005 0.47200003
0.097433552 -0.051389005 0.47200003
0.098047607 -0.05128013 0.47100002
0.098868087 -0.05128013 0.47100002
0.099476919 -0.051171254 0.47000003
0.10029566 -0.051171254 0.47000003
0.1011144 -0.051171254 0.47000003
0.10149938 -0.050953504 0.46800002
0.10231464 -0.050953504 0.46800002
0.10290953 -0.050844628 0.46700001
0.10350094 -0.050735753 0.46600002
0.10431271 -0.050735753 0.46600002
0.10512448 -0.050735753 0.46600002
0.10570892 -0.050626878 0.46500003
0.10628988 -0.050518002 0.46400002
0.10686735 -0.050409127 0.46300003
0.10744134 -0.050300252 0.46200001
0.10801185 -0.050191376 0.46100003
0.10881491 -0.050191376 0.46100003
0.10961797 -0.050191376 0.46100003
0.11018151 -0.050082505 0.46000001
0.11074156 -0.049973629 0.45900002
0.11154114 -0.049973629 0.45900002
0.11209597 -0.049864754 0.45800003
0.1128938 -0.049864754 0.45800003
0.11369164 -0.049864754 0.45800003
0.11448947 -0.049864754 0.45800003
0.11528731 -0.049864754 0.45800003
0.1163386 -0.049973629 0.45900002
0.11739339 -0.050082505 0.46000001
0.11845165 -0.050191376 0.46100003
0.11925472 -0.050191376 0.46100003
0.12005778 -0.050191376 0.46100003
0.12112301 -0.050300252 0.46200001
0.12219173 -0.050409127 0.46300003
0.12299827 -0.050409127 0.46300003
0.12407222 -0.050518002 0.46400002
0.1248805 -0.050518002 0.46400002
0.12568879 -0.050518002 0.46400002
0.12649707 -0.050518002 0.46400002
0.12757973 -0.050626878 0.46500003
0.12838976 -0.050626878 0.46500003
0.12919979 -0.050626878 0.46500003
0.037317999 -0.048316985 0.45100003
0.037934665 -0.048102722 0.44900003
0.038716823 -0.048102722 0.44900003
0.039411012 -0.047995586 0.44800001
0.040191427 -0.047995586 0.44800001
0.040971842 -0.047995586 0.44800001
0.041659061 -0.047888454 0.44700003
0.042247858 -0.047674187 0.44500002
0.042926367 -0.047567055 0.44400004
0.043699816 -0.047567055 0.44400004
0.044373099 -0.047459923 0.44300002
0.045042899 -0.047352787 0.44200003
0.04581286 -0.047352787 0.44200003
0.046582825 -0.047352787 0.44200003
0.047352787 -0.047352787 0.44200003
0.048122752 -0.047352787 0.44200003
0.048892718 -0.047352787 0.44200003
0.049662679 -0.047352787 0.44200003
0.050432645 -0.047352787 0.44200003
0.05120261 -0.047352787 0.44200003
0.051972572 -0.047352787 0.44200003
0.052742537 -0.047352787 0.44200003
0.053512502 -0.047352787 0.44200003
0.054282464 -0.047352787 0.44200003
0.055052429 -0.047352787 0.44200003
0.055822395 -0.047352787 0.44200003
0.056592356 -0.047352787 0.44200003
0.057362322 -0.047352787 0.44200003
0.058132287 -0.047352787 0.44200003
0.058902249 -0.047352787 0.44200003
0.05953721 -0.047245655 0.44100001
0.060305431 -0.047245655 0.44100001
0.074884228 -0.050888177 0.47500002
0.076030463 -0.051102445 0.47700003
0.076861396 -0.051102445 0.47700003
0.077692337 -0.051102445 0.47700003
0.078523271 -0.051102445 0.47700003
0.079520561 -0.051209576 0.47800002
0.080353238 -0.051209576 0.47800002
0.081185915 -0.051209576 0.47800002
0.082018591 -0.051209576 0.47800002
0.082677938 -0.051102445 0.47700003
0.083508871 -0.051102445 0.47700003
0.084339805 -0.051102445 0.47700003
0.085170738 -0.051102445 0.47700003
0.086001672 -0.051102445 0.47700003
0.086832605 -0.051102445 0.47700003
0.087663539 -0.051102445 0.47700003
0.088308953 -0.050995313 0.47600001
0.089325413 -0.051102445 0.47700003
0.08996734 -0.050995313 0.47600001
0.09079653 -0.050995313 0.47600001
0.091433227 -0.050888177 0.47500002
0.092260681 -0.050888177 0.47500002
0.092892155 -0.050781045 0.47400004
0.093717866 -0.050781045 0.47400004
0.094543569 -0.050781045 0.47400004
0.095168076 -0.050673913 0.47300002
0.095789105 -0.050566778 0.47200003
0.096611328 -0.050566778 0.47200003
0.097227126 -0.050459646 0.47100002
0.097839437 -0.050352514 0.47000003
0.098658174 -0.050352514 0.47000003
0.099476919 -0.050352514 0.47000003
0.10008226 -0.050245382 0.46900001
0.10089926 -0.050245382 0.46900001
0.10149938 -0.050138246 0.46800002
0.10209601 -0.050031114 0.46700001
0.10290953 -0.050031114 0.46700001
0.10350094 -0.049923982 0.46600002
0.10431271 -0.049923982 0.46600002
0.10489889 -0.049816847 0.46500003
0.10570892 -0.049816847 0.46500003
0.1060608 -0.049602583 0.46300003
0.10686735 -0.049602583 0.46300003
0.10744134 -0.049495447 0.46200001
0.10801185 -0.049388316 0.46100003
0.10881491 -0.049388316 0.46100003
0.10938019 -0.049281184 0.46000001
0.11018151 -0.049281184 0.46000001
0.11074156 -0.049174052 0.45900002
0.11154114 -0.049174052 0.45900002
0.11234072 -0.049174052 0.45900002
0.11314029 -0.049174052 0.45900002
0.11393987 -0.049174052 0.45900002
0.11473945 -0.049174052 0.45900002
0.11579075 -0.049281184 0.46000001
0.11659206 -0.049281184 0.46000001
0.11764859 -0.049388316 0.46100003
0.11845165 -0.049388316 0.46100003
0.1195134 -0.049495447 0.46200001
0.12057863 -0.049602583 0.46300003
0.12138518 -0.049602583 0.46300003
0.12245564 -0.049709715 0.46400002
0.12326393 -0.049709715 0.46400002
0.12433961 -0.049816847 0.46500003
0.12514964 -0.049816847 0.46500003
0.12595968 -0.049816847 0.46500003
0.12676971 -0.049816847 0.46500003
0.12757973 -0.049816847 0.46500003
0.12838976 -0.049816847 0.46500003
0.12919979 -0.049816847 0.46500003
0.037317999 -0.047531344 0.45100003
0.037934665 -0.047320563 0.44900003
0.038716823 -0.047320563 0.44900003
0.039411012 -0.047215171 0.44800001
0.040101714 -0.047109779 0.44700003
0.040880386 -0.047109779 0.44700003
0.041565865 -0.047004391 0.44600001
0.042247858 -0.046898998 0.44500002
0.042926367 -0.046793606 0.44400004
0.04360139 -0.046688218 0.44300002
0.044272933 -0.046582825 0.44200003
0.045042899 -0.046582825 0.44200003
0.045709211 -0.046477433 0.44100001
0.046477433 -0.046477433 0.44100001
0.047245655 -0.046477433 0.44100001
0.048013877 -0.046477433 0.44100001
0.048782099 -0.046477433 0.44100001
0.049550321 -0.046477433 0.44100001
0.050318543 -0.046477433 0.44100001
0.051086765 -0.046477433 0.44100001
0.051854987 -0.046477433 0.44100001
0.052623209 -0.046477433 0.44100001
0.053512502 -0.046582825 0.44200003
0.054282464 -0.046582825 0.44200003
0.055052429 -0.046582825 0.44200003
0.0556961 -0.046477433 0.44100001
0.056592356 -0.046582825 0.44200003
0.057362322 -0.046582825 0.44200003
0.058132287 -0.046582825 0.44200003
0.058768988 -0.046477433 0.44100001
0.05953721 -0.046477433 0.44100001
0.060305431 -0.046477433 0.44100001
0.074056782 -0.050060727 0.47500002
0.074884228 -0.050060727 0.47500002
0.075871073 -0.050166119 0.47600001
0.076700263 -0.050166119 0.47600001
0.07752946 -0.050166119 0.47600001
0.07835865 -0.050166119 0.47600001
0.079354204 -0.050271511 0.47700003
0.080353238 -0.0503769 0.47800002
0.081185915 -0.0503769 0.47800002
0.082018591 -0.0503769 0.47800002
0.082677938 -0.050271511 0.47700003
0.083508871 -0.050271511 0.47700003
0.084339805 -0.050271511 0.47700003
0.085170738 -0.050271511 0.47700003
0.086001672 -0.050271511 0.47700003
0.086650573 -0.050166119 0.47600001
0.087479763 -0.050166119 0.47600001
0.088308953 -0.050166119 0.47600001
0.08895088 -0.050060727 0.47500002
0.089778334 -0.050060727 0.47500002
0.090415031 -0.049955338 0.47400004
0.091240741 -0.049955338 0.47400004
0.092066444 -0.049955338 0.47400004
0.092892155 -0.049955338 0.47400004
0.09352015 -0.049849946 0.47300002
0.094344109 -0.049849946 0.47300002
0.094966881 -0.049744554 0.47200003
0.095789105 -0.049744554 0.47200003
0.096406639 -0.049639165 0.47100002
0.097020693 -0.049533773 0.47000003
0.097839437 -0.049533773 0.47000003
0.098658174 -0.049533773 0.47000003
0.099265262 -0.049428381 0.46900001
0.10008226 -0.049428381 0.46900001
0.10068412 -0.049322993 0.46800002
0.10149938 -0.049322993 0.46800002
0.10209601 -0.0492176 0.46700001
0.10268916 -0.049112208 0.46600002
0.10350094 -0.049112208 0.46600002
0.10408886 -0.04900682 0.46500003
0.10489889 -0.04900682 0.46500003
0.10548159 -0.048901428 0.46400002
0.1060608 -0.048796035 0.46300003
0.10663654 -0.048690647 0.46200001
0.10744134 -0.048690647 0.46200001
0.10801185 -0.048585255 0.46100003
0.10881491 -0.048585255 0.46100003
0.10938019 -0.048479863 0.46000001
0.11018151 -0.048479863 0.46000001
0.11074156 -0.04837447 0.45900002
0.11154114 -0.04837447 0.45900002
0.11234072 -0.04837447 0.45900002
0.11338679 -0.048479863 0.46000001
0.1141881 -0.048479863 0.46000001
0.11498943 -0.048479863 0.46000001
0.11604246 -0.048585255 0.46100003
0.11684553 -0.048585255 0.46100003
0.11764859 -0.048585255 0.46100003
0.1187086 -0.048690647 0.46200001
0.11977209 -0.048796035 0.46300003
0.12057863 -0.048796035 0.46300003
0.12164735 -0.048901428 0.46400002
0.12271956 -0.04900682 0.46500003
0.12352958 -0.04900682 0.46500003
0.12433961 -0.04900682 0.46500003
0.12514964 -0.04900682 0.46500003
0.12595968 -0.04900682 0.46500003
0.12676971 -0.04900682 0.46500003
0.12757973 -0.04900682 0.46500003
0.12866586 -0.049112208 0.46600002
0.12947764 -0.049112208 0.46600002
0.13028942 -0.049112208 0.46600002
0.037317999 -0.046745703 0.45100003
0.03810364 -0.046745703 0.45100003
0.040101714 -0.046331108 0.44700003
0.040880386 -0.046331108 0.44700003
0.041845456 -0.046538405 0.44900003
0.042247858 -0.046123806 0.44500002
0.042926367 -0.046020158 0.44400004
0.043502968 -0.04581286 0.44200003
0.044272933 -0.04581286 0.44200003
0.044940989 -0.045709211 0.44100001
0.045709211 -0.045709211 0.44100001
0.046372041 -0.045605563 0.44000003
0.047138523 -0.045605563 0.44000003
0.047905002 -0.045605563 0.44000003
0.048671484 -0.045605563 0.44000003
0.049437962 -0.045605563 0.44000003
0.050204445 -0.045605563 0.44000003
0.050970923 -0.045605563 0.44000003
0.051737402 -0.045605563 0.44000003
0.052503884 -0.045605563 0.44000003
0.053391431 -0.045709211 0.44100001
0.054159656 -0.045709211 0.44100001
0.054927878 -0.045709211 0.44100001
0.0556961 -0.045709211 0.44100001
0.056464322 -0.045709211 0.44100001
0.057232544 -0.045709211 0.44100001
0.058000766 -0.045709211 0.44100001
0.058768988 -0.045709211 0.44100001
0.059402205 -0.045605563 0.44000003
0.060168684 -0.045605563 0.44000003
0.060796674 -0.045501914 0.43900001
0.074056782 -0.049233276 0.47500002
0.074884228 -0.049233276 0.47500002
0.075711682 -0.049233276 0.47500002
0.076700263 -0.049336929 0.47600001
0.07752946 -0.049336929 0.47600001
0.07835865 -0.049336929 0.47600001
0.079354204 -0.049440578 0.47700003
0.08001703 -0.049336929 0.47600001
0.081016071 -0.049440578 0.47700003
0.081847005 -0.049440578 0.47700003
0.082677938 -0.049440578 0.47700003
0.083333798 -0.049336929 0.47600001
0.084162995 -0.049336929 0.47600001
0.084992185 -0.049336929 0.47600001
0.085821375 -0.049336929 0.47600001
0.086650573 -0.049336929 0.47600001
0.087295979 -0.049233276 0.47500002
0.087937906 -0.049129628 0.47400004
0.088763617 -0.049129628 0.47400004
0.08958932 -0.049129628 0.47400004
0.090415031 -0.049129628 0.47400004
0.091240741 -0.049129628 0.47400004
0.092066444 -0.049129628 0.47400004
0.092696182 -0.049025979 0.47300002
0.093322434 -0.04892233 0.47200003
0.094144657 -0.04892233 0.47200003
0.094966881 -0.04892233 0.47200003
0.095586158 -0.048818681 0.47100002
0.096201956 -0.048715033 0.47000003
0.097020693 -0.048715033 0.47000003
0.097839437 -0.048715033 0.47000003
0.098448262 -0.048611384 0.46900001
0.099265262 -0.048611384 0.46900001
0.099868864 -0.048507735 0.46800002
0.10068412 -0.048507735 0.46800002
0.1012825 -0.048404086 0.46700001
0.10187739 -0.048300438 0.46600002
0.10268916 -0.048300438 0.46600002
0.10327883 -0.048196789 0.46500003
0.10408886 -0.048196789 0.46500003
0.1046733 -0.04809314 0.46400002
0.10525426 -0.047989491 0.46300003
0.1060608 -0.047989491 0.46300003
0.10663654 -0.047885843 0.46200001
0.10720878 -0.04778219 0.46100003
0.10801185 -0.04778219 0.46100003
0.10857887 -0.047678541 0.46000001
0.10938019 -0.047678541 0.46000001
0.11018151 -0.047678541 0.46000001
0.11098283 -0.047678541 0.46000001
0.11178415 -0.047678541 0.46000001
0.11258547 -0.047678541 0.46000001
0.11338679 -0.047678541 0.46000001
0.11443634 -0.04778219 0.46100003
0.1152394 -0.04778219 0.46100003
0.11604246 -0.04778219 0.46100003
0.11709899 -0.047885843 0.46200001
0.11790379 -0.047885843 0.46200001
0.11896554 -0.047989491 0.46300003
0.12003078 -0.04809314 0.46400002
0.12109949 -0.048196789 0.46500003
0.12190952 -0.048196789 0.46500003
0.12271956 -0.048196789 0.46500003
0.12352958 -0.048196789 0.46500003
0.12460701 -0.048300438 0.46600002
0.12541878 -0.048300438 0.46600002
0.12623055 -0.048300438 0.46600002
0.12704232 -0.048300438 0.46600002
0.12785409 -0.048300438 0.46600002
0.12894198 -0.048404086 0.46700001
0.12947764 -0.048300438 0.46600002
0.040971842 -0.045654338 0.44800001
0.041659061 -0.045552433 0.44700003
0.042342797 -0.045450523 0.44600001
0.042926367 -0.045246709 0.44400004
0.04360139 -0.045144804 0.44300002
0.044272933 -0.045042899 0.44200003
0.044940989 -0.044940989 0.44100001
0.045605563 -0.044839084 0.44000003
0.046372041 -0.044839084 0.44000003
0.047138523 -0.044839084 0.44000003
0.047796126 -0.044737175 0.43900001
0.048560865 -0.044737175 0.43900001
0.049325604 -0.044737175 0.43900001
0.050090343 -0.044737175 0.43900001
0.050855082 -0.044737175 0.43900001
0.051619817 -0.044737175 0.43900001
0.052384555 -0.044737175 0.43900001
0.053270362 -0.044839084 0.44000003
0.054159656 -0.044940989 0.44100001
0.054927878 -0.044940989 0.44100001
0.055569805 -0.044839084 0.44000003
0.056336284 -0.044839084 0.44000003
0.057102762 -0.044839084 0.44000003
0.057869244 -0.044839084 0.44000003
0.058635723 -0.044839084 0.44000003
0.059267201 -0.044737175 0.43900001
0.060031936 -0.044737175 0.43900001
0.060796674 -0.044737175 0.43900001
0.061561413 -0.044737175 0.43900001
0.062042207 -0.044533361 0.43700001
0.074056782 -0.04840583 0.47500002
0.074884228 -0.04840583 0.47500002
0.075711682 -0.04840583 0.47500002
0.076539129 -0.04840583 0.47500002
0.07752946 -0.048507735 0.47600001
0.07819403 -0.04840583 0.47500002
0.07918784 -0.048507735 0.47600001
0.07984893 -0.04840583 0.47500002
0.080846228 -0.048507735 0.47600001
0.081675418 -0.048507735 0.47600001
0.082504608 -0.048507735 0.47600001
0.083158731 -0.04840583 0.47500002
0.084162995 -0.048507735 0.47600001
0.084813632 -0.04840583 0.47500002
0.085460782 -0.048303921 0.47400004
0.086286493 -0.048303921 0.47400004
0.087112196 -0.048303921 0.47400004
0.087937906 -0.048303921 0.47400004
0.088763617 -0.048303921 0.47400004
0.08958932 -0.048303921 0.47400004
0.090224281 -0.048202015 0.47300002
0.091048248 -0.048202015 0.47300002
0.091872215 -0.048202015 0.47300002
0.092500202 -0.048100106 0.47200003
0.093322434 -0.048100106 0.47200003
0.094144657 -0.048100106 0.47200003
0.094765678 -0.047998201 0.47100002
0.095383219 -0.047896292 0.47000003
0.096201956 -0.047896292 0.47000003
0.097020693 -0.047896292 0.47000003
0.097631268 -0.047794387 0.46900001
0.098448262 -0.047794387 0.46900001
0.099053614 -0.047692478 0.46800002
0.099868864 -0.047692478 0.46800002
0.10068412 -0.047692478 0.46800002
0.1012825 -0.047590572 0.46700001
0.10187739 -0.047488663 0.46600002
0.1024688 -0.047386758 0.46500003
0.10327883 -0.047386758 0.46500003
0.10386501 -0.047284853 0.46400002
0.10444771 -0.047182944 0.46300003
0.10525426 -0.047182944 0.46300003
0.10583173 -0.047081038 0.46200001
0.10640572 -0.046979129 0.46100003
0.10720878 -0.046979129 0.46100003
0.10801185 -0.046979129 0.46100003
0.10857887 -0.046877224 0.46000001
0.10938019 -0.046877224 0.46000001
0.11018151 -0.046877224 0.46000001
0.11098283 -0.046877224 0.46000001
0.11178415 -0.046877224 0.46000001
0.11258547 -0.046877224 0.46000001
0.11338679 -0.046877224 0.46000001
0.11443634 -0.046979129 0.46100003
0.11548938 -0.047081038 0.46200001
0.11629418 -0.047081038 0.46200001
