# .PCD v0.7 - Point Cloud Data file format
VERSION 0.7
FIELDS x y z
SIZE 4 4 4
TYPE F F F
COUNT 1 1 1
WIDTH 1335
HEIGHT 1
VIEWPOINT 0 0 0 1 0 0 0
POINTS 1335
DATA ascii
0.068482377 -0.074405178 0.42500001
0.069059849 -0.074230112 0.42400002
0.069798462 -0.074230112 0.42400002
0.070370704 -0.074055038 0.42300001
0.071107574 -0.074055038 0.42300001
0.071674593 -0.073879965 0.42200002
0.072409719 -0.073879965 0.42200002
0.072971515 -0.073704898 0.42100003
0.073529825 -0.073529825 0.42000002
0.074084654 -0.073354751 0.41900003
0.074814551 -0.073354751 0.41900003
0.07536415 -0.073179685 0.41800001
0.07609231 -0.073179685 0.41800001
0.076820463 -0.073179685 0.41800001
0.077548616 -0.073179685 0.41800001
0.078276776 -0.073179685 0.41800001
0.079193935 -0.073354751 0.41900003
0.079923838 -0.073354751 0.41900003
0.080653735 -0.073354751 0.41900003
0.081772096 -0.073704898 0.42100003
0.082701452 -0.073879965 0.42200002
0.083634295 -0.074055038 0.42300001
0.08530923 -0.074230112 0.42400002
0.086047836 -0.074230112 0.42400002
0.086786449 -0.074230112 0.42400002
0.087525055 -0.074230112 0.42400002
0.056843206 -0.075918108 0.43800002
0.05747468 -0.075744778 0.43700001
0.058235936 -0.075744778 0.43700001
0.058997188 -0.075744778 0.43700001
0.059621695 -0.075571448 0.43600002
0.060381208 -0.075571448 0.43600002
0.061000489 -0.075398117 0.43500003
0.061616287 -0.075224787 0.43400002
0.062228598 -0.075051464 0.43300003
0.062837429 -0.074878134 0.43200001
0.063589975 -0.074878134 0.43200001
0.064193577 -0.074704804 0.43100002
0.064944379 -0.074704804 0.43100002
0.065542758 -0.074531473 0.43000001
0.066137649 -0.074358143 0.42900002
0.066729054 -0.07418482 0.42800003
0.067316979 -0.07401149 0.42700002
0.067742027 -0.073664829 0.42500001
0.068482377 -0.073664829 0.42500001
0.069222726 -0.073664829 0.42500001
0.069798462 -0.073491499 0.42400002
0.070537068 -0.073491499 0.42400002
0.071107574 -0.073318169 0.42300001
0.071844436 -0.073318169 0.42300001
0.072409719 -0.073144846 0.42200002
0.072971515 -0.072971515 0.42100003
0.073529825 -0.072798185 0.42000002
0.074261464 -0.072798185 0.42000002
0.074814551 -0.072624855 0.41900003
0.075544447 -0.072624855 0.41900003
0.076274343 -0.072624855 0.41900003
0.077004246 -0.072624855 0.41900003
0.077734143 -0.072624855 0.41900003
0.078464039 -0.072624855 0.41900003
0.079193935 -0.072624855 0.41900003
0.079923838 -0.072624855 0.41900003
0.080846228 -0.072798185 0.42000002
0.082160562 -0.073318169 0.42300001
0.082897432 -0.073318169 0.42300001
0.056972984 -0.075326696 0.43900001
0.057606202 -0.075155109 0.43800002
0.058235936 -0.074983522 0.43700001
0.058997188 -0.074983522 0.43700001
0.059758443 -0.074983522 0.43700001
0.060381208 -0.074811935 0.43600002
0.061000489 -0.074640349 0.43500003
0.061758257 -0.074640349 0.43500003
0.062372316 -0.074468762 0.43400002
0.062982887 -0.074297175 0.43300003
0.063589975 -0.074125588 0.43200001
0.064193577 -0.073954001 0.43100002
0.064944379 -0.073954001 0.43100002
0.065695181 -0.073954001 0.43100002
0.066291817 -0.073782414 0.43000001
0.066884965 -0.073610827 0.42900002
0.067316979 -0.073267654 0.42700002
0.068060815 -0.073267654 0.42700002
0.068482377 -0.07292448 0.42500001
0.069222726 -0.07292448 0.42500001
0.069798462 -0.072752893 0.42400002
0.070537068 -0.072752893 0.42400002
0.071107574 -0.072581306 0.42300001
0.071844436 -0.072581306 0.42300001
0.072409719 -0.072409719 0.42200002
0.072971515 -0.072238132 0.42100003
0.073704898 -0.072238132 0.42100003
0.074261464 -0.072066545 0.42000002
0.074814551 -0.071894959 0.41900003
0.075544447 -0.071894959 0.41900003
0.076274343 -0.071894959 0.41900003
0.077004246 -0.071894959 0.41900003
0.077734143 -0.071894959 0.41900003
0.078464039 -0.071894959 0.41900003
0.079382949 -0.072066545 0.42000002
0.080114588 -0.072066545 0.42000002
0.081231207 -0.072409719 0.42200002
0.082160562 -0.072581306 0.42300001
0.082897432 -0.072581306 0.42300001
0.057606202 -0.074392118 0.43800002
0.058235936 -0.074222267 0.43700001
0.058997188 -0.074222267 0.43700001
0.059758443 -0.074222267 0.43700001
0.060381208 -0.074052423 0.43600002
0.06114072 -0.074052423 0.43600002
0.061758257 -0.07388258 0.43500003
0.062372316 -0.073712736 0.43400002
0.062982887 -0.073542893 0.43300003
0.063589975 -0.073373042 0.43200001
0.064342514 -0.073373042 0.43200001
0.064944379 -0.073203199 0.43100002
0.065695181 -0.073203199 0.43100002
0.066291817 -0.073033355 0.43000001
0.066884965 -0.072863512 0.42900002
0.067474633 -0.072693661 0.42800003
0.068060815 -0.072523817 0.42700002
0.068643518 -0.072353974 0.42600003
0.069222726 -0.072184131 0.42500001
0.069963083 -0.072184131 0.42500001
0.070537068 -0.072014287 0.42400002
0.071275674 -0.072014287 0.42400002
0.071844436 -0.071844436 0.42300001
0.072581306 -0.071844436 0.42300001
0.073144846 -0.071674593 0.42200002
0.073704898 -0.071504749 0.42100003
0.074261464 -0.071334906 0.42000002
0.074993104 -0.071334906 0.42000002
0.075724743 -0.071334906 0.42000002
0.076456383 -0.071334906 0.42000002
0.077188022 -0.071334906 0.42000002
0.077919662 -0.071334906 0.42000002
0.078651302 -0.071334906 0.42000002
0.079571955 -0.071504749 0.42100003
0.08049608 -0.071674593 0.42200002
0.0814237 -0.071844436 0.42300001
0.082160562 -0.071844436 0.42300001
0.056972984 -0.073797219 0.43900001
0.057737723 -0.073797219 0.43900001
0.058369197 -0.073629119 0.43800002
0.058997188 -0.073461019 0.43700001
0.059758443 -0.073461019 0.43700001
0.060381208 -0.073292911 0.43600002
0.06114072 -0.073292911 0.43600002
0.061758257 -0.073124811 0.43500003
0.062516026 -0.073124811 0.43500003
0.063128345 -0.072956704 0.43400002
0.063737169 -0.072788604 0.43300003
0.064342514 -0.072620504 0.43200001
0.064944379 -0.072452396 0.43100002
0.065695181 -0.072452396 0.43100002
0.066445984 -0.072452396 0.43100002
0.067196786 -0.072452396 0.43100002
0.06763228 -0.072116189 0.42900002
0.068060815 -0.071779989 0.42700002
0.068804651 -0.071779989 0.42700002
0.069222726 -0.071443781 0.42500001
0.069963083 -0.071443781 0.42500001
0.070537068 -0.071275674 0.42400002
0.071275674 -0.071275674 0.42400002
0.071844436 -0.071107574 0.42300001
0.072581306 -0.071107574 0.42300001
0.073144846 -0.070939474 0.42200002
0.073704898 -0.070771366 0.42100003
0.074438281 -0.070771366 0.42100003
0.074993104 -0.070603266 0.42000002
0.075724743 -0.070603266 0.42000002
0.076456383 -0.070603266 0.42000002
0.077188022 -0.070603266 0.42000002
0.077919662 -0.070603266 0.42000002
0.078838572 -0.070771366 0.42100003
0.079571955 -0.070771366 0.42100003
0.08049608 -0.070939474 0.42200002
0.0814237 -0.071107574 0.42300001
0.082354799 -0.071275674 0.42400002
0.057102762 -0.073198847 0.44000003
0.057869244 -0.073198847 0.44000003
0.058369197 -0.072866119 0.43800002
0.059132192 -0.072866119 0.43800002
0.059758443 -0.072699763 0.43700001
0.060519695 -0.072699763 0.43700001
0.06114072 -0.072533399 0.43600002
0.061758257 -0.072367042 0.43500003
0.062516026 -0.072367042 0.43500003
0.063128345 -0.072200678 0.43400002
0.063737169 -0.072034314 0.43300003
0.064342514 -0.071867958 0.43200001
0.06509506 -0.071867958 0.43200001
0.065847605 -0.071867958 0.43200001
0.066445984 -0.071701594 0.43100002
0.067196786 -0.071701594 0.43100002
0.067789935 -0.071535237 0.43000001
0.068220206 -0.071202509 0.42800003
0.068804651 -0.071036153 0.42700002
0.069385603 -0.070869789 0.42600003
0.069963083 -0.070703432 0.42500001
0.070537068 -0.070537068 0.42400002
0.071275674 -0.070537068 0.42400002
0.072014287 -0.070537068 0.42400002
0.072581306 -0.070370704 0.42300001
0.073144846 -0.070204347 0.42200002
0.073879965 -0.070204347 0.42200002
0.074438281 -0.070037983 0.42100003
0.074993104 -0.069871627 0.42000002
0.075724743 -0.069871627 0.42000002
0.076638423 -0.070037983 0.42100003
0.077371806 -0.070037983 0.42100003
0.078105189 -0.070037983 0.42100003
0.078838572 -0.070037983 0.42100003
0.079949968 -0.070370704 0.42300001
0.08068683 -0.070370704 0.42300001
0.081616186 -0.070537068 0.42400002
0.082354799 -0.070537068 0.42400002
0.083093405 -0.070537068 0.42400002
0.084029727 -0.070703432 0.42500001
0.057102762 -0.072432362 0.44000003
0.057869244 -0.072432362 0.44000003
0.058502462 -0.072267748 0.43900001
0.059267201 -0.072267748 0.43900001
0.060031936 -0.072267748 0.43900001
0.060519695 -0.071938507 0.43700001
0.061280951 -0.071938507 0.43700001
0.061900232 -0.071773887 0.43600002
0.062516026 -0.071609266 0.43500003
0.063128345 -0.071444653 0.43400002
0.06388437 -0.071444653 0.43400002
0.064491458 -0.071280032 0.43300003
0.06509506 -0.071115412 0.43200001
0.065847605 -0.071115412 0.43200001
0.066445984 -0.070950791 0.43100002
0.067196786 -0.070950791 0.43100002
0.067947589 -0.070950791 0.43100002
0.068538994 -0.070786178 0.43000001
0.069126919 -0.070621558 0.42900002
0.06954848 -0.070292316 0.42700002
0.069963083 -0.069963083 0.42500001
0.070537068 -0.069798462 0.42400002
0.071275674 -0.069798462 0.42400002
0.071844436 -0.069633842 0.42300001
0.072581306 -0.069633842 0.42300001
0.073144846 -0.069469221 0.42200002
0.073879965 -0.069469221 0.42200002
0.074438281 -0.0693046 0.42100003
0.075171657 -0.0693046 0.42100003
0.07590504 -0.0693046 0.42100003
0.076638423 -0.0693046 0.42100003
0.077371806 -0.0693046 0.42100003
0.078105189 -0.0693046 0.42100003
0.079025835 -0.069469221 0.42200002
0.079949968 -0.069633842 0.42300001
0.08068683 -0.069633842 0.42300001
0.0814237 -0.069633842 0.42300001
0.082354799 -0.069798462 0.42400002
0.083289377 -0.069963083 0.42500001
0.084029727 -0.069963083 0.42500001
0.057869244 -0.071665883 0.44000003
0.058635723 -0.071665883 0.44000003
0.059267201 -0.071503006 0.43900001
0.060031936 -0.071503006 0.43900001
0.060658187 -0.071340129 0.43800002
0.061280951 -0.071177252 0.43700001
0.062042207 -0.071177252 0.43700001
0.062516026 -0.070851497 0.43500003
0.063128345 -0.07068862 0.43400002
0.06388437 -0.07068862 0.43400002
0.064491458 -0.070525743 0.43300003
0.06509506 -0.070362866 0.43200001
0.065847605 -0.070362866 0.43200001
0.066445984 -0.070199989 0.43100002
0.067196786 -0.070199989 0.43100002
0.067789935 -0.070037112 0.43000001
0.068538994 -0.070037112 0.43000001
0.069126919 -0.069874234 0.42900002
0.069711357 -0.069711357 0.42800003
0.070292316 -0.06954848 0.42700002
0.070703432 -0.069222726 0.42500001
0.071275674 -0.069059849 0.42400002
0.072014287 -0.069059849 0.42400002
0.072581306 -0.068896972 0.42300001
0.073318169 -0.068896972 0.42300001
0.073879965 -0.068734102 0.42200002
0.074615091 -0.068734102 0.42200002
0.075171657 -0.068571225 0.42100003
0.07590504 -0.068571225 0.42100003
0.076820463 -0.068734102 0.42200002
0.077371806 -0.068571225 0.42100003
0.078290708 -0.068734102 0.42200002
0.079025835 -0.068734102 0.42200002
0.079949968 -0.068896972 0.42300001
0.08068683 -0.068896972 0.42300001
0.081616186 -0.069059849 0.42400002
0.082354799 -0.069059849 0.42400002
0.083289377 -0.069222726 0.42500001
0.084029727 -0.069222726 0.42500001
0.057869244 -0.070899405 0.44000003
0.058635723 -0.070899405 0.44000003
0.059402205 -0.070899405 0.44000003
0.060031936 -0.070738271 0.43900001
0.060658187 -0.070577137 0.43800002
0.061421182 -0.070577137 0.43800002
0.062042207 -0.070415996 0.43700001
0.06265974 -0.070254862 0.43600002
0.063273802 -0.070093729 0.43500003
0.06388437 -0.069932595 0.43400002
0.064640395 -0.069932595 0.43400002
0.06524574 -0.069771461 0.43300003
0.065847605 -0.069610327 0.43200001
0.066445984 -0.069449186 0.43100002
0.067196786 -0.069449186 0.43100002
0.067947589 -0.069449186 0.43100002
0.068538994 -0.069288053 0.43000001
0.069288053 -0.069288053 0.43000001
0.069874234 -0.069126919 0.42900002
0.070456937 -0.068965785 0.42800003
0.070703432 -0.068482377 0.42500001
0.071275674 -0.068321243 0.42400002
0.072014287 -0.068321243 0.42400002
0.072752893 -0.068321243 0.42400002
0.073318169 -0.068160109 0.42300001
0.074055038 -0.068160109 0.42300001
0.074615091 -0.067998976 0.42200002
0.075350218 -0.067998976 0.42200002
0.076085337 -0.067998976 0.42200002
0.076820463 -0.067998976 0.42200002
0.077555589 -0.067998976 0.42200002
0.078290708 -0.067998976 0.42200002
0.079213098 -0.068160109 0.42300001
0.079949968 -0.068160109 0.42300001
0.08087758 -0.068321243 0.42400002
0.081616186 -0.068321243 0.42400002
0.082354799 -0.068321243 0.42400002
0.058768988 -0.070292316 0.44100001
0.059402205 -0.070132926 0.44000003
0.060168684 -0.070132926 0.44000003
0.060796674 -0.069973528 0.43900001
0.061421182 -0.069814138 0.43800002
0.062042207 -0.069654748 0.43700001
0.06265974 -0.06949535 0.43600002
0.063273802 -0.06933596 0.43500003
0.064031571 -0.06933596 0.43500003
0.064640395 -0.06917657 0.43400002
0.06524574 -0.069017172 0.43300003
0.065847605 -0.068857782 0.43200001
0.066600151 -0.068857782 0.43200001
0.067196786 -0.068698384 0.43100002
0.067947589 -0.068698384 0.43100002
0.068698384 -0.068698384 0.43100002
0.069288053 -0.068538994 0.43000001
0.070037112 -0.068538994 0.43000001
0.070621558 -0.068379603 0.42900002
0.070703432 -0.067742027 0.42500001
0.071443781 -0.067742027 0.42500001
0.072014287 -0.067582637 0.42400002
0.072752893 -0.067582637 0.42400002
0.073318169 -0.067423247 0.42300001
0.074055038 -0.067423247 0.42300001
0.074791901 -0.067423247 0.42300001
0.075350218 -0.067263849 0.42200002
0.076085337 -0.067263849 0.42200002
0.077002503 -0.067423247 0.42300001
0.077555589 -0.067263849 0.42200002
0.078290708 -0.067263849 0.42200002
0.079213098 -0.067423247 0.42300001
0.079949968 -0.067423247 0.42300001
0.08087758 -0.067582637 0.42400002
0.081616186 -0.067582637 0.42400002
0.082354799 -0.067582637 0.42400002
0.059402205 -0.069366448 0.44000003
0.060168684 -0.069366448 0.44000003
0.060935162 -0.069366448 0.44000003
0.061561413 -0.069208793 0.43900001
0.062184177 -0.069051139 0.43800002
0.062803462 -0.068893492 0.43700001
0.063419253 -0.068735838 0.43600002
0.064031571 -0.068578191 0.43500003
0.06478934 -0.068578191 0.43500003
0.065396428 -0.068420537 0.43400002
0.066000029 -0.06826289 0.43300003
0.066600151 -0.068105236 0.43200001
0.067196786 -0.067947589 0.43100002
0.067947589 -0.067947589 0.43100002
0.068698384 -0.067947589 0.43100002
0.069288053 -0.067789935 0.43000001
0.070037112 -0.067789935 0.43000001
0.070621558 -0.06763228 0.42900002
0.071368873 -0.06763228 0.42900002
0.071443781 -0.067001678 0.42500001
0.072014287 -0.066844031 0.42400002
0.072752893 -0.066844031 0.42400002
0.073491499 -0.066844031 0.42400002
0.074055038 -0.066686377 0.42300001
0.074791901 -0.066686377 0.42300001
0.075528771 -0.066686377 0.42300001
0.076265633 -0.066686377 0.42300001
0.077002503 -0.066686377 0.42300001
0.077739365 -0.066686377 0.42300001
0.078476235 -0.066686377 0.42300001
0.079213098 -0.066686377 0.42300001
0.08032798 -0.067001678 0.42500001
0.08106833 -0.067001678 0.42500001
0.081808679 -0.067001678 0.42500001
0.058902249 -0.068911783 0.44200003
0.05953721 -0.068755873 0.44100001
0.060168684 -0.068599962 0.44000003
0.060935162 -0.068599962 0.44000003
0.061701644 -0.068599962 0.44000003
0.062326152 -0.068444058 0.43900001
0.062947176 -0.068288147 0.43800002
0.06356471 -0.068132237 0.43700001
0.064325966 -0.068132237 0.43700001
0.064938277 -0.067976326 0.43600002
0.065547109 -0.067820422 0.43500003
0.066000029 -0.067508601 0.43300003
0.066600151 -0.06735269 0.43200001
0.06735269 -0.06735269 0.43200001
0.067947589 -0.067196786 0.43100002
0.068698384 -0.067196786 0.43100002
0.069449186 -0.067196786 0.43100002
0.070037112 -0.067040876 0.43000001
0.070786178 -0.067040876 0.43000001
0.071368873 -0.066884965 0.42900002
0.071443781 -0.066261329 0.42500001
0.072014287 -0.066105418 0.42400002
0.072752893 -0.066105418 0.42400002
0.073491499 -0.066105418 0.42400002
0.074230112 -0.066105418 0.42400002
0.074791901 -0.065949515 0.42300001
0.075528771 -0.065949515 0.42300001
0.076265633 -0.065949515 0.42300001
0.077002503 -0.065949515 0.42300001
0.077739365 -0.065949515 0.42300001
0.078661755 -0.066105418 0.42400002
0.079213098 -0.065949515 0.42300001
0.080705993 -0.06657315 0.42700002
0.081449829 -0.06657315 0.42700002
0.058902249 -0.068141818 0.44200003
0.059672214 -0.068141818 0.44200003
0.060305431 -0.067987651 0.44100001
0.060935162 -0.067833483 0.44000003
0.061701644 -0.067833483 0.44000003
0.062326152 -0.067679316 0.43900001
0.063090891 -0.067679316 0.43900001
0.063710168 -0.067525148 0.43800002
0.064325966 -0.067370981 0.43700001
0.064938277 -0.067216814 0.43600002
0.065547109 -0.067062646 0.43500003
0.066152453 -0.066908479 0.43400002
0.066754319 -0.066754319 0.43300003
0.06735269 -0.066600151 0.43200001
0.067947589 -0.066445984 0.43100002
0.068698384 -0.066445984 0.43100002
0.069449186 -0.066445984 0.43100002
0.070037112 -0.066291817 0.43000001
0.070786178 -0.066291817 0.43000001
0.071535237 -0.066291817 0.43000001
0.071443781 -0.065520979 0.42500001
0.072014287 -0.065366812 0.42400002
0.072752893 -0.065366812 0.42400002
0.073491499 -0.065366812 0.42400002
0.074230112 -0.065366812 0.42400002
0.074968718 -0.065366812 0.42400002
0.075707324 -0.065366812 0.42400002
0.07644593 -0.065366812 0.42400002
0.077002503 -0.065212645 0.42300001
0.077923149 -0.065366812 0.42400002
0.078847282 -0.065520979 0.42500001
0.079774894 -0.065675147 0.42600003
0.080705993 -0.065829314 0.42700002
0.081449829 -0.065829314 0.42700002
0.082193665 -0.065829314 0.42700002
0.059035514 -0.067524277 0.44300002
0.059672214 -0.067371853 0.44200003
0.060442179 -0.067371853 0.44200003
0.061073653 -0.067219429 0.44100001
0.061701644 -0.067067005 0.44000003
0.062468123 -0.067067005 0.44000003
0.063090891 -0.066914581 0.43900001
0.063855626 -0.066914581 0.43900001
0.064325966 -0.066609733 0.43700001
0.064938277 -0.066457301 0.43600002
0.065697789 -0.066457301 0.43600002
0.066304877 -0.066304877 0.43500003
0.066908479 -0.066152453 0.43400002
0.067508601 -0.066000029 0.43300003
0.068105236 -0.065847605 0.43200001
0.068698384 -0.065695181 0.43100002
0.069449186 -0.065695181 0.43100002
0.070199989 -0.065695181 0.43100002
0.070786178 -0.065542758 0.43000001
0.071535237 -0.065542758 0.43000001
0.072116189 -0.065390326 0.42900002
0.072184131 -0.06478063 0.42500001
0.07292448 -0.06478063 0.42500001
0.073664829 -0.06478063 0.42500001
0.074230112 -0.064628206 0.42400002
0.074968718 -0.064628206 0.42400002
0.075707324 -0.064628206 0.42400002
0.07644593 -0.064628206 0.42400002
0.077366583 -0.06478063 0.42500001
0.078106932 -0.06478063 0.42500001
0.078847282 -0.06478063 0.42500001
0.079962157 -0.065085478 0.42700002
0.080705993 -0.065085478 0.42700002
0.081449829 -0.065085478 0.42700002
0.082193665 -0.065085478 0.42700002
0.058395326 -0.066903256 0.44400004
0.059168775 -0.066903256 0.44400004
0.059807219 -0.066752575 0.44300002
0.060442179 -0.066601887 0.44200003
0.061073653 -0.066451207 0.44100001
0.061841875 -0.066451207 0.44100001
0.062468123 -0.066300526 0.44000003
0.063234605 -0.066300526 0.44000003
0.063855626 -0.066149838 0.43900001
0.064473167 -0.065999158 0.43800002
0.065236159 -0.065999158 0.43800002
0.065697789 -0.065697789 0.43600002
0.066304877 -0.065547109 0.43500003
0.067062646 -0.065547109 0.43500003
0.067820422 -0.065547109 0.43500003
0.068105236 -0.06509506 0.43200001
0.068698384 -0.064944379 0.43100002
0.069449186 -0.064944379 0.43100002
0.070199989 -0.064944379 0.43100002
0.070786178 -0.064793691 0.43000001
0.071535237 -0.064793691 0.43000001
0.072116189 -0.06464301 0.42900002
0.072523817 -0.064341642 0.42700002
0.073267654 -0.064341642 0.42700002
0.073664829 -0.064040281 0.42500001
0.074405178 -0.064040281 0.42500001
0.075145528 -0.064040281 0.42500001
0.075885877 -0.064040281 0.42500001
0.076626226 -0.064040281 0.42500001
0.077366583 -0.064040281 0.42500001
0.078290708 -0.064190961 0.42600003
0.079032801 -0.064190961 0.42600003
0.079962157 -0.064341642 0.42700002
0.080894999 -0.06449233 0.42800003
0.081640579 -0.06449233 0.42800003
0.082386151 -0.06449233 0.42800003
0.083520196 -0.064793691 0.43000001
0.084269255 -0.064793691 0.43000001
0.057751659 -0.066278748 0.44500002
0.058395326 -0.066129811 0.44400004
0.059168775 -0.066129811 0.44400004
0.059807219 -0.065980867 0.44300002
0.060578924 -0.065980867 0.44300002
0.061212141 -0.065831929 0.44200003
0.061841875 -0.065682985 0.44100001
0.062610097 -0.065682985 0.44100001
0.063234605 -0.065534048 0.44000003
0.063855626 -0.065385103 0.43900001
0.064620368 -0.065385103 0.43900001
0.065087222 -0.065087222 0.43700001
0.065697789 -0.064938277 0.43600002
0.066457301 -0.064938277 0.43600002
0.067216814 -0.064938277 0.43600002
0.067820422 -0.06478934 0.43500003
0.068420537 -0.064640395 0.43400002
0.068857782 -0.064342514 0.43200001
0.069610327 -0.064342514 0.43200001
0.070199989 -0.064193577 0.43100002
0.070950791 -0.064193577 0.43100002
0.071535237 -0.064044632 0.43000001
0.072116189 -0.063895695 0.42900002
0.072693661 -0.06374675 0.42800003
0.07343924 -0.06374675 0.42800003
0.07401149 -0.063597813 0.42700002
0.074580252 -0.063448869 0.42600003
0.075322345 -0.063448869 0.42600003
0.075885877 -0.063299932 0.42500001
0.076626226 -0.063299932 0.42500001
0.077548616 -0.063448869 0.42600003
0.078474492 -0.063597813 0.42700002
0.079218328 -0.063597813 0.42700002
0.080149427 -0.06374675 0.42800003
0.080894999 -0.06374675 0.42800003
0.081640579 -0.06374675 0.42800003
0.082386151 -0.06374675 0.42800003
0.083520196 -0.064044632 0.43000001
0.084269255 -0.064044632 0.43000001
0.057751659 -0.06550356 0.44500002
0.058526848 -0.06550356 0.44500002
0.059302039 -0.06550356 0.44500002
0.059942223 -0.065356359 0.44400004
0.060715672 -0.065356359 0.44400004
0.061212141 -0.065061964 0.44200003
0.061982106 -0.065061964 0.44200003
0.062752068 -0.065061964 0.44200003
0.063378319 -0.064914763 0.44100001
0.064001083 -0.064767562 0.44000003
0.064473167 -0.064473167 0.43800002
0.065087222 -0.064325966 0.43700001
0.065697789 -0.064178765 0.43600002
0.066457301 -0.064178765 0.43600002
0.067216814 -0.064178765 0.43600002
0.067976326 -0.064178765 0.43600002
0.068578191 -0.064031571 0.43500003
0.06917657 -0.06388437 0.43400002
0.069610327 -0.063589975 0.43200001
0.070362866 -0.063589975 0.43200001
0.070950791 -0.063442774 0.43100002
0.071701594 -0.063442774 0.43100002
0.072284296 -0.063295573 0.43000001
0.072863512 -0.063148372 0.42900002
0.07343924 -0.063001178 0.42800003
0.07401149 -0.062853977 0.42700002
0.074755318 -0.062853977 0.42700002
0.075499155 -0.062853977 0.42700002
0.076064438 -0.062706776 0.42600003
0.07680653 -0.062706776 0.42600003
0.077730656 -0.062853977 0.42700002
0.078474492 -0.062853977 0.42700002
0.079218328 -0.062853977 0.42700002
0.080149427 -0.063001178 0.42800003
0.081084006 -0.063148372 0.42900002
0.082022078 -0.063295573 0.43000001
0.082963623 -0.063442774 0.43100002
0.083714426 -0.063442774 0.43100002
0.084465228 -0.063442774 0.43100002
0.057232544 -0.06501928 0.44700003
0.057881437 -0.064873829 0.44600001
0.058526848 -0.064728372 0.44500002
0.059302039 -0.064728372 0.44500002
0.059942223 -0.064582914 0.44400004
0.060715672 -0.064582914 0.44400004
0.061350632 -0.064437456 0.44300002
0.061982106 -0.064291999 0.44200003
0.062752068 -0.064291999 0.44200003
0.063378319 -0.064146541 0.44100001
0.064001083 -0.064001083 0.44000003
0.064473167 -0.063710168 0.43800002
0.065087222 -0.06356471 0.43700001
0.065848477 -0.06356471 0.43700001
0.066609733 -0.06356471 0.43700001
0.067370981 -0.06356471 0.43700001
0.067976326 -0.063419253 0.43600002
0.068578191 -0.063273802 0.43500003
0.06917657 -0.063128345 0.43400002
0.069610327 -0.062837429 0.43200001
0.070199989 -0.062691972 0.43100002
0.070950791 -0.062691972 0.43100002
0.071535237 -0.062546514 0.43000001
0.072284296 -0.062546514 0.43000001
0.072863512 -0.062401056 0.42900002
0.073610827 -0.062401056 0.42900002
0.07418482 -0.062255599 0.42800003
0.074755318 -0.062110145 0.42700002
0.075499155 -0.062110145 0.42700002
0.076242991 -0.062110145 0.42700002
0.076986827 -0.062110145 0.42700002
0.077730656 -0.062110145 0.42700002
0.078474492 -0.062110145 0.42700002
0.079403847 -0.062255599 0.42800003
0.080149427 -0.062255599 0.42800003
0.081084006 -0.062401056 0.42900002
0.082022078 -0.062546514 0.43000001
0.082963623 -0.062691972 0.43100002
0.083714426 -0.062691972 0.43100002
0.084465228 -0.062691972 0.43100002
0.057881437 -0.06409689 0.44600001
0.058526848 -0.063953176 0.44500002
0.059302039 -0.063953176 0.44500002
0.060077228 -0.063953176 0.44500002
0.060715672 -0.063809462 0.44400004
0.06148912 -0.063809462 0.44400004
0.062262569 -0.063809462 0.44400004
0.062752068 -0.063522033 0.44200003
0.063522033 -0.063522033 0.44200003
0.064001083 -0.063234605 0.44000003
0.064767562 -0.063234605 0.44000003
0.065236159 -0.062947176 0.43800002
0.065999158 -0.062947176 0.43800002
0.066609733 -0.062803462 0.43700001
0.067370981 -0.062803462 0.43700001
0.067976326 -0.06265974 0.43600002
0.068735838 -0.06265974 0.43600002
0.06933596 -0.062516026 0.43500003
0.069932595 -0.062372316 0.43400002
0.070362866 -0.062084883 0.43200001
0.070950791 -0.061941169 0.43100002
0.071701594 -0.061941169 0.43100002
0.072284296 -0.061797455 0.43000001
0.072863512 -0.061653741 0.42900002
0.073610827 -0.061653741 0.42900002
0.07418482 -0.061510023 0.42800003
0.074930392 -0.061510023 0.42800003
0.075499155 -0.061366308 0.42700002
0.076242991 -0.061366308 0.42700002
0.076986827 -0.061366308 0.42700002
0.077730656 -0.061366308 0.42700002
0.078658275 -0.061510023 0.42800003
0.079403847 -0.061510023 0.42800003
0.08033669 -0.061653741 0.42900002
0.081273012 -0.061797455 0.43000001
0.082212821 -0.061941169 0.43100002
0.082963623 -0.061941169 0.43100002
0.083714426 -0.061941169 0.43100002
0.084465228 -0.061941169 0.43100002
0.057232544 -0.063461937 0.44700003
0.057881437 -0.063319959 0.44600001
0.058526848 -0.063177988 0.44500002
0.059302039 -0.063177988 0.44500002
0.060077228 -0.063177988 0.44500002
0.06085242 -0.063177988 0.44500002
0.06148912 -0.063036017 0.44400004
0.062262569 -0.063036017 0.44400004
0.062752068 -0.062752068 0.44200003
0.063522033 -0.062752068 0.44200003
0.064146541 -0.062610097 0.44100001
0.064767562 -0.062468123 0.44000003
0.065385103 -0.062326152 0.43900001
0.065999158 -0.062184177 0.43800002
0.066762157 -0.062184177 0.43800002
0.067370981 -0.062042207 0.43700001
0.068132237 -0.062042207 0.43700001
0.068735838 -0.061900232 0.43600002
0.06933596 -0.061758257 0.43500003
0.070093729 -0.061758257 0.43500003
0.07068862 -0.061616287 0.43400002
0.071115412 -0.061332341 0.43200001
0.071701594 -0.061190367 0.43100002
0.072452396 -0.061190367 0.43100002
0.073033355 -0.061048392 0.43000001
0.073610827 -0.060906421 0.42900002
0.074358143 -0.060906421 0.42900002
0.074930392 -0.060764447 0.42800003
0.075675972 -0.060764447 0.42800003
0.076242991 -0.060622476 0.42700002
0.076986827 -0.060622476 0.42700002
0.077912696 -0.060764447 0.42800003
0.078658275 -0.060764447 0.42800003
0.079589374 -0.060906421 0.42900002
0.080523953 -0.061048392 0.43000001
0.081462026 -0.061190367 0.43100002
0.082212821 -0.061190367 0.43100002
0.082963623 -0.061190367 0.43100002
0.057232544 -0.062683262 0.44700003
0.058011215 -0.062683262 0.44700003
0.058658369 -0.062543027 0.44600001
0.059302039 -0.0624028 0.44500002
0.060077228 -0.0624028 0.44500002
0.06085242 -0.0624028 0.44500002
0.06148912 -0.062262569 0.44400004
0.062262569 -0.062262569 0.44400004
0.063036017 -0.062262569 0.44400004
0.063522033 -0.061982106 0.44200003
0.064291999 -0.061982106 0.44200003
0.064767562 -0.061701644 0.44000003
0.065534048 -0.061701644 0.44000003
0.066149838 -0.061561413 0.43900001
0.066914581 -0.061561413 0.43900001
0.067525148 -0.061421182 0.43800002
0.068132237 -0.061280951 0.43700001
0.068735838 -0.06114072 0.43600002
0.06949535 -0.06114072 0.43600002
0.070093729 -0.061000489 0.43500003
0.07068862 -0.060860258 0.43400002
0.071280032 -0.060720026 0.43300003
0.071867958 -0.060579795 0.43200001
0.072452396 -0.060439564 0.43100002
0.073203199 -0.060439564 0.43100002
0.073782414 -0.060299333 0.43000001
0.074358143 -0.060159102 0.42900002
0.074930392 -0.060018871 0.42800003
0.075675972 -0.060018871 0.42800003
0.076421544 -0.060018871 0.42800003
0.077167124 -0.060018871 0.42800003
0.077912696 -0.060018871 0.42800003
0.078658275 -0.060018871 0.42800003
0.079589374 -0.060159102 0.42900002
0.080523953 -0.060299333 0.43000001
0.081462026 -0.060439564 0.43100002
0.082212821 -0.060439564 0.43100002
0.082963623 -0.060439564 0.43100002
0.083714426 -0.060439564 0.43100002
0.057488617 -0.062181566 0.44900003
0.058011215 -0.061904587 0.44700003
0.058658369 -0.061766099 0.44600001
0.059435301 -0.061766099 0.44600001
0.060212232 -0.061766099 0.44600001
0.06085242 -0.061627608 0.44500002
0.061627608 -0.061627608 0.44500002
0.062262569 -0.06148912 0.44400004
0.063036017 -0.06148912 0.44400004
0.063665748 -0.061350632 0.44300002
0.064291999 -0.061212141 0.44200003
0.064914763 -0.061073653 0.44100001
0.065534048 -0.060935162 0.44000003
0.066149838 -0.060796674 0.43900001
0.066914581 -0.060796674 0.43900001
0.067525148 -0.060658187 0.43800002
0.068132237 -0.060519695 0.43700001
0.068893492 -0.060519695 0.43700001
0.06949535 -0.060381208 0.43600002
0.070093729 -0.06024272 0.43500003
0.07068862 -0.060104229 0.43400002
0.071444653 -0.060104229 0.43400002
0.072034314 -0.059965741 0.43300003
0.072620504 -0.059827253 0.43200001
0.073203199 -0.059688762 0.43100002
0.073782414 -0.059550274 0.43000001
0.074531473 -0.059550274 0.43000001
0.075105466 -0.059411786 0.42900002
0.075852782 -0.059411786 0.42900002
0.076421544 -0.059273295 0.42800003
0.077167124 -0.059273295 0.42800003
0.078094736 -0.059411786 0.42900002
0.079025835 -0.059550274 0.43000001
0.079960421 -0.059688762 0.43100002
0.080711223 -0.059688762 0.43100002
0.081462026 -0.059688762 0.43100002
0.082212821 -0.059688762 0.43100002
0.082963623 -0.059688762 0.43100002
0.083714426 -0.059688762 0.43100002
0.058140997 -0.06126266 0.44800001
0.058921412 -0.06126266 0.44800001
0.059568565 -0.061125912 0.44700003
0.060212232 -0.060989168 0.44600001
0.060989168 -0.060989168 0.44600001
0.061627608 -0.06085242 0.44500002
0.0624028 -0.06085242 0.44500002
0.063036017 -0.060715672 0.44400004
0.063809462 -0.060715672 0.44400004
0.064291999 -0.060442179 0.44200003
0.064914763 -0.060305431 0.44100001
0.065534048 -0.060168684 0.44000003
0.066300526 -0.060168684 0.44000003
0.067067005 -0.060168684 0.44000003
0.067679316 -0.060031936 0.43900001
0.068132237 -0.059758443 0.43700001
0.068893492 -0.059758443 0.43700001
0.06949535 -0.059621695 0.43600002
0.070093729 -0.059484947 0.43500003
0.070851497 -0.059484947 0.43500003
0.071444653 -0.059348203 0.43400002
0.072200678 -0.059348203 0.43400002
0.072788604 -0.059211455 0.43300003
0.073373042 -0.059074707 0.43200001
0.073954001 -0.058937959 0.43100002
0.074531473 -0.058801215 0.43000001
0.075105466 -0.058664467 0.42900002
0.075852782 -0.058664467 0.42900002
0.076600097 -0.058664467 0.42900002
0.07734742 -0.058664467 0.42900002
0.078458816 -0.058937959 0.43100002
0.079209618 -0.058937959 0.43100002
0.079960421 -0.058937959 0.43100002
0.080711223 -0.058937959 0.43100002
0.081462026 -0.058937959 0.43100002
0.08240357 -0.059074707 0.43200001
0.056959048 -0.060887258 0.45100003
0.057744689 -0.060887258 0.45100003
0.058270775 -0.060617249 0.44900003
0.058921412 -0.060482245 0.44800001
0.059701826 -0.060482245 0.44800001
0.06034724 -0.06034724 0.44700003
0.060989168 -0.060212232 0.44600001
0.061627608 -0.060077228 0.44500002
0.0624028 -0.060077228 0.44500002
0.063036017 -0.059942223 0.44400004
0.063809462 -0.059942223 0.44400004
0.064291999 -0.059672214 0.44200003
0.065061964 -0.059672214 0.44200003
0.065682985 -0.05953721 0.44100001
0.066300526 -0.059402205 0.44000003
0.067067005 -0.059402205 0.44000003
0.067679316 -0.059267201 0.43900001
0.068288147 -0.059132192 0.43800002
0.068893492 -0.058997188 0.43700001
0.069654748 -0.058997188 0.43700001
0.070254862 -0.058862183 0.43600002
0.070851497 -0.058727179 0.43500003
0.071609266 -0.058727179 0.43500003
0.072200678 -0.058592174 0.43400002
0.072956704 -0.058592174 0.43400002
0.073542893 -0.05845717 0.43300003
0.074125588 -0.058322165 0.43200001
0.074704804 -0.058187157 0.43100002
0.075455606 -0.058187157 0.43100002
0.076029591 -0.058052152 0.43000001
0.076778658 -0.058052152 0.43000001
0.077527717 -0.058052152 0.43000001
0.078458816 -0.058187157 0.43100002
0.079209618 -0.058187157 0.43100002
0.08014594 -0.058322165 0.43200001
0.080898486 -0.058322165 0.43200001
0.081651032 -0.058322165 0.43200001
0.057085343 -0.060234878 0.45200002
0.057872728 -0.060234878 0.45200002
0.058530334 -0.060101617 0.45100003
0.059052933 -0.059835091 0.44900003
0.059835091 -0.059835091 0.44900003
0.060482245 -0.059701826 0.44800001
0.061125912 -0.059568565 0.44700003
0.061766099 -0.059435301 0.44600001
0.0624028 -0.059302039 0.44500002
0.063036017 -0.059168775 0.44400004
0.063809462 -0.059168775 0.44400004
0.064437456 -0.059035514 0.44300002
0.065061964 -0.058902249 0.44200003
0.065682985 -0.058768988 0.44100001
0.066451207 -0.058768988 0.44100001
0.067067005 -0.058635723 0.44000003
0.067833483 -0.058635723 0.44000003
0.068444058 -0.058502462 0.43900001
0.069051139 -0.058369197 0.43800002
0.069654748 -0.058235936 0.43700001
0.070254862 -0.058102671 0.43600002
0.071014374 -0.058102671 0.43600002
0.071609266 -0.05796941 0.43500003
0.072367042 -0.05796941 0.43500003
0.072956704 -0.057836145 0.43400002
0.073712736 -0.057836145 0.43400002
0.074125588 -0.057569619 0.43200001
0.074878134 -0.057569619 0.43200001
0.07563068 -0.057569619 0.43200001
0.076206408 -0.057436358 0.43100002
0.076957211 -0.057436358 0.43100002
0.077708013 -0.057436358 0.43100002
0.078640856 -0.057569619 0.43200001
0.079393394 -0.057569619 0.43200001
0.08014594 -0.057569619 0.43200001
0.080898486 -0.057569619 0.43200001
0.081651032 -0.057569619 0.43200001
0.055756196 -0.059710536 0.45400003
0.056547064 -0.059710536 0.45400003
0.057211637 -0.059579019 0.45300001
0.057872728 -0.059447497 0.45200002
0.058530334 -0.059315976 0.45100003
0.059315976 -0.059315976 0.45100003
0.059835091 -0.059052933 0.44900003
0.060617249 -0.059052933 0.44900003
0.06126266 -0.058921412 0.44800001
0.061904587 -0.05878989 0.44700003
0.062543027 -0.058658369 0.44600001
0.063177988 -0.058526848 0.44500002
0.063953176 -0.058526848 0.44500002
0.064582914 -0.058395326 0.44400004
0.065061964 -0.058132287 0.44200003
0.065831929 -0.058132287 0.44200003
0.066451207 -0.058000766 0.44100001
0.067219429 -0.058000766 0.44100001
0.067833483 -0.057869244 0.44000003
0.068444058 -0.057737723 0.43900001
0.069051139 -0.057606202 0.43800002
0.069814138 -0.057606202 0.43800002
0.070415996 -0.05747468 0.43700001
0.071014374 -0.057343159 0.43600002
0.071609266 -0.057211637 0.43500003
0.072367042 -0.057211637 0.43500003
0.073124811 -0.057211637 0.43500003
0.073712736 -0.057080116 0.43400002
0.074468762 -0.057080116 0.43400002
0.075051464 -0.056948595 0.43300003
0.07563068 -0.056817077 0.43200001
0.076383218 -0.056817077 0.43200001
0.077135764 -0.056817077 0.43200001
0.07788831 -0.056817077 0.43200001
0.078640856 -0.056817077 0.43200001
0.079393394 -0.056817077 0.43200001
0.080331467 -0.056948595 0.43300003
0.081085749 -0.056948595 0.43300003
0.055756196 -0.058919668 0.45400003
0.056547064 -0.058919668 0.45400003
0.057211637 -0.05878989 0.45300001
0.057872728 -0.058660112 0.45200002
0.058660112 -0.058660112 0.45200002
0.059315976 -0.058530334 0.45100003
0.060101617 -0.058530334 0.45100003
0.060617249 -0.058270775 0.44900003
0.06126266 -0.058140997 0.44800001
0.061904587 -0.058011215 0.44700003
0.062543027 -0.057881437 0.44600001
0.063177988 -0.057751659 0.44500002
0.063953176 -0.057751659 0.44500002
0.064582914 -0.057621881 0.44400004
0.065209158 -0.0574921 0.44300002
0.065831929 -0.057362322 0.44200003
0.066601887 -0.057362322 0.44200003
0.067219429 -0.057232544 0.44100001
0.067987651 -0.057232544 0.44100001
0.068599962 -0.057102762 0.44000003
0.069208793 -0.056972984 0.43900001
0.069973528 -0.056972984 0.43900001
0.070415996 -0.056713428 0.43700001
0.071014374 -0.056583647 0.43600002
0.071773887 -0.056583647 0.43600002
0.072367042 -0.056453869 0.43500003
0.073124811 -0.056453869 0.43500003
0.073712736 -0.056324091 0.43400002
0.074468762 -0.056324091 0.43400002
0.075051464 -0.056194309 0.43300003
0.075805746 -0.056194309 0.43300003
0.076383218 -0.056064531 0.43200001
0.077135764 -0.056064531 0.43200001
0.07788831 -0.056064531 0.43200001
0.078822888 -0.056194309 0.43300003
0.079760961 -0.056324091 0.43400002
0.080516987 -0.056324091 0.43400002
0.081273012 -0.056324091 0.43400002
0.056547064 -0.0581288 0.45400003
0.057211637 -0.058000766 0.45300001
0.057872728 -0.057872728 0.45200002
0.058660112 -0.057872728 0.45200002
0.059447497 -0.057872728 0.45200002
0.060101617 -0.057744689 0.45100003
0.060752254 -0.057616655 0.45000002
0.061399408 -0.057488617 0.44900003
0.062043075 -0.057360578 0.44800001
0.062683262 -0.057232544 0.44700003
0.063319959 -0.057104506 0.44600001
0.063953176 -0.056976467 0.44500002
0.064728372 -0.056976467 0.44500002
0.065209158 -0.056720395 0.44300002
0.065831929 -0.056592356 0.44200003
0.066601887 -0.056592356 0.44200003
0.067219429 -0.056464322 0.44100001
0.067987651 -0.056464322 0.44100001
0.068599962 -0.056336284 0.44000003
0.069366448 -0.056336284 0.44000003
0.069973528 -0.056208245 0.43900001
0.070577137 -0.056080211 0.43800002
0.071177252 -0.055952173 0.43700001
0.071773887 -0.055824134 0.43600002
0.072533399 -0.055824134 0.43600002
0.073124811 -0.0556961 0.43500003
0.07388258 -0.0556961 0.43500003
0.074468762 -0.055568062 0.43400002
0.075224787 -0.055568062 0.43400002
0.075805746 -0.055440024 0.43300003
0.076560035 -0.055440024 0.43300003
0.077314317 -0.055440024 0.43300003
0.078068607 -0.055440024 0.43300003
0.079004928 -0.055568062 0.43400002
0.079760961 -0.055568062 0.43400002
0.080516987 -0.055568062 0.43400002
0.081273012 -0.055568062 0.43400002
0.055756196 -0.057337932 0.45400003
0.056547064 -0.057337932 0.45400003
0.057337932 -0.057337932 0.45400003
0.058000766 -0.057211637 0.45300001
0.05878989 -0.057211637 0.45300001
0.059447497 -0.057085343 0.45200002
0.060101617 -0.056959048 0.45100003
0.060752254 -0.056832753 0.45000002
0.061399408 -0.056706458 0.44900003
0.062043075 -0.056580164 0.44800001
0.062823489 -0.056580164 0.44800001
0.063319959 -0.056327574 0.44600001
0.06409689 -0.056327574 0.44600001
0.064728372 -0.056201279 0.44500002
0.065356359 -0.056074984 0.44400004
0.065980867 -0.05594869 0.44300002
0.066601887 -0.055822395 0.44200003
0.067219429 -0.0556961 0.44100001
0.067987651 -0.0556961 0.44100001
0.068599962 -0.055569805 0.44000003
0.069366448 -0.055569805 0.44000003
0.069973528 -0.055443507 0.43900001
0.070577137 -0.055317212 0.43800002
0.071177252 -0.055190917 0.43700001
0.071773887 -0.055064622 0.43600002
0.072533399 -0.055064622 0.43600002
0.073124811 -0.054938328 0.43500003
0.07388258 -0.054938328 0.43500003
0.074640349 -0.054938328 0.43500003
0.075224787 -0.054812033 0.43400002
0.07598082 -0.054812033 0.43400002
0.076736845 -0.054812033 0.43400002
0.077492878 -0.054812033 0.43400002
0.078248903 -0.054812033 0.43400002
0.079004928 -0.054812033 0.43400002
0.079944737 -0.054938328 0.43500003
0.080702513 -0.054938328 0.43500003
0.081460282 -0.054938328 0.43500003
0.082218051 -0.054938328 0.43500003
0.056124631 -0.056920726 0.45700002
0.056671619 -0.056671619 0.45500001
0.057337932 -0.056547064 0.45400003
0.0581288 -0.056547064 0.45400003
0.05878989 -0.056422513 0.45300001
0.059579019 -0.056422513 0.45300001
0.060234878 -0.056297958 0.45200002
0.060887258 -0.056173407 0.45100003
0.061399408 -0.0559243 0.44900003
0.062181566 -0.0559243 0.44900003
0.062823489 -0.055799749 0.44800001
0.063461937 -0.055675194 0.44700003
0.06409689 -0.055550642 0.44600001
0.064728372 -0.055426087 0.44500002
0.06550356 -0.055426087 0.44500002
0.066129811 -0.055301536 0.44400004
0.066601887 -0.055052429 0.44200003
0.067371853 -0.055052429 0.44200003
0.067987651 -0.054927878 0.44100001
0.068599962 -0.054803323 0.44000003
0.069366448 -0.054803323 0.44000003
0.070132926 -0.054803323 0.44000003
0.070738271 -0.054678772 0.43900001
0.071177252 -0.054429665 0.43700001
0.071773887 -0.05430511 0.43600002
0.072533399 -0.05430511 0.43600002
0.073124811 -0.054180559 0.43500003
0.07388258 -0.054180559 0.43500003
0.074640349 -0.054180559 0.43500003
0.075224787 -0.054056004 0.43400002
0.07598082 -0.054056004 0.43400002
0.076736845 -0.054056004 0.43400002
0.077492878 -0.054056004 0.43400002
0.078248903 -0.054056004 0.43400002
0.079186969 -0.054180559 0.43500003
0.079944737 -0.054180559 0.43500003
0.080702513 -0.054180559 0.43500003
0.081460282 -0.054180559 0.43500003
0.082407057 -0.05430511 0.43600002
0.083166569 -0.05430511 0.43600002
0.083926082 -0.05430511 0.43600002
0.056124631 -0.056124631 0.45700002
0.056671619 -0.055879008 0.45500001
0.057464227 -0.055879008 0.45500001
0.0581288 -0.055756196 0.45400003
0.058919668 -0.055756196 0.45400003
0.059710536 -0.055756196 0.45400003
0.060234878 -0.055510577 0.45200002
0.060887258 -0.055387765 0.45100003
0.061399408 -0.055142142 0.44900003
0.062181566 -0.055142142 0.44900003
0.062823489 -0.05501933 0.44800001
0.063461937 -0.054896519 0.44700003
0.06409689 -0.054773711 0.44600001
0.064873829 -0.054773711 0.44600001
0.06550356 -0.054650899 0.44500002
0.066278748 -0.054650899 0.44500002
0.066903256 -0.054528087 0.44400004
0.067371853 -0.054282464 0.44200003
0.068141818 -0.054282464 0.44200003
0.068755873 -0.054159656 0.44100001
0.069366448 -0.054036845 0.44000003
0.070132926 -0.054036845 0.44000003
0.070738271 -0.053914033 0.43900001
0.071503006 -0.053914033 0.43900001
0.071938507 -0.05366841 0.43700001
0.072533399 -0.053545598 0.43600002
0.073292911 -0.053545598 0.43600002
0.07388258 -0.05342279 0.43500003
0.074640349 -0.05342279 0.43500003
0.075224787 -0.053299978 0.43400002
0.07598082 -0.053299978 0.43400002
0.076736845 -0.053299978 0.43400002
0.077492878 -0.053299978 0.43400002
0.078248903 -0.053299978 0.43400002
0.079186969 -0.05342279 0.43500003
0.079944737 -0.05342279 0.43500003
0.080702513 -0.05342279 0.43500003
0.081647545 -0.053545598 0.43600002
0.082407057 -0.053545598 0.43600002
0.083357319 -0.05366841 0.43700001
0.084879823 -0.05366841 0.43700001
0.056124631 -0.055328537 0.45700002
0.056796171 -0.055207469 0.45600003
0.057464227 -0.055086397 0.45500001
0.058256838 -0.055086397 0.45500001
0.058919668 -0.054965328 0.45400003
0.059710536 -0.054965328 0.45400003
0.060368143 -0.05484426 0.45300001
0.060887258 -0.054602124 0.45100003
0.061536156 -0.054481052 0.45000002
0.062181566 -0.054359984 0.44900003
0.062823489 -0.054238915 0.44800001
0.063461937 -0.054117847 0.44700003
0.064240612 -0.054117847 0.44700003
0.064873829 -0.053996779 0.44600001
0.065650761 -0.053996779 0.44600001
0.066278748 -0.053875707 0.44500002
0.066903256 -0.053754639 0.44400004
0.067524277 -0.053633571 0.44300002
0.068141818 -0.053512502 0.44200003
0.068755873 -0.053391431 0.44100001
0.069524094 -0.053391431 0.44100001
0.070132926 -0.053270362 0.44000003
0.070899405 -0.053270362 0.44000003
0.071503006 -0.053149294 0.43900001
0.072103128 -0.053028226 0.43800002
0.072699763 -0.052907158 0.43700001
0.073292911 -0.052786086 0.43600002
0.074052423 -0.052786086 0.43600002
0.074640349 -0.052665018 0.43500003
0.075398117 -0.052665018 0.43500003
0.076155886 -0.052665018 0.43500003
0.076736845 -0.052543949 0.43400002
0.077492878 -0.052543949 0.43400002
0.0784292 -0.052665018 0.43500003
0.079186969 -0.052665018 0.43500003
0.080128521 -0.052786086 0.43600002
0.080888033 -0.052786086 0.43600002
0.081834808 -0.052907158 0.43700001
0.082596064 -0.052907158 0.43700001
0.083357319 -0.052907158 0.43700001
0.084888533 -0.053391431 0.44100001
0.055328537 -0.054532442 0.45700002
0.056124631 -0.054532442 0.45700002
0.056796171 -0.054413114 0.45600003
0.057464227 -0.054293789 0.45500001
0.058256838 -0.054293789 0.45500001
0.058919668 -0.05417446 0.45400003
0.059710536 -0.05417446 0.45400003
0.060368143 -0.054055136 0.45300001
0.061022263 -0.053935807 0.45200002
0.0616729 -0.053816479 0.45100003
0.062320054 -0.053697154 0.45000002
0.062963724 -0.053577825 0.44900003
0.063603908 -0.053458501 0.44800001
0.064240612 -0.053339172 0.44700003
0.06501928 -0.053339172 0.44700003
0.065650761 -0.053219844 0.44600001
0.066278748 -0.053100519 0.44500002
0.067053936 -0.053100519 0.44500002
0.067676701 -0.05298119 0.44400004
0.068141818 -0.052742537 0.44200003
0.068911783 -0.052742537 0.44200003
0.069524094 -0.052623209 0.44100001
0.070292316 -0.052623209 0.44100001
0.070899405 -0.052503884 0.44000003
0.071665883 -0.052503884 0.44000003
0.072267748 -0.052384555 0.43900001
0.072699763 -0.052145902 0.43700001
0.073292911 -0.052026574 0.43600002
0.074052423 -0.052026574 0.43600002
0.074640349 -0.051907249 0.43500003
0.075398117 -0.051907249 0.43500003
0.076155886 -0.051907249 0.43500003
0.076913662 -0.051907249 0.43500003
0.077671431 -0.051907249 0.43500003
0.0784292 -0.051907249 0.43500003
0.079369009 -0.052026574 0.43600002
0.080128521 -0.052026574 0.43600002
0.081073552 -0.052145902 0.43700001
0.081834808 -0.052145902 0.43700001
0.08278507 -0.052265231 0.43800002
0.083929569 -0.052503884 0.44000003
0.084888533 -0.052623209 0.44100001
0.056920726 -0.053736348 0.45700002
0.057590522 -0.053618763 0.45600003
0.058256838 -0.053501178 0.45500001
0.05904945 -0.053501178 0.45500001
0.059710536 -0.053383593 0.45400003
0.060501404 -0.053383593 0.45400003
0.061157268 -0.053266007 0.45300001
0.061809648 -0.053148422 0.45200002
0.062458541 -0.053030837 0.45100003
0.062963724 -0.052795667 0.44900003
0.063745879 -0.052795667 0.44900003
0.064384326 -0.052678082 0.44800001
0.06501928 -0.052560497 0.44700003
0.065650761 -0.052442912 0.44600001
0.066427693 -0.052442912 0.44600001
0.067053936 -0.052325327 0.44500002
0.067676701 -0.052207742 0.44400004
0.068295985 -0.052090157 0.44300002
0.068911783 -0.051972572 0.44200003
0.069681749 -0.051972572 0.44200003
0.070292316 -0.051854987 0.44100001
0.070899405 -0.051737402 0.44000003
0.071665883 -0.051737402 0.44000003
0.072267748 -0.051619817 0.43900001
0.073032483 -0.051619817 0.43900001
0.073461019 -0.051384646 0.43700001
0.074052423 -0.051267061 0.43600002
0.074811935 -0.051267061 0.43600002
0.075398117 -0.05114948 0.43500003
0.076155886 -0.05114948 0.43500003
0.076913662 -0.05114948 0.43500003
0.077671431 -0.05114948 0.43500003
0.078609496 -0.051267061 0.43600002
0.079551049 -0.051384646 0.43700001
0.080312304 -0.051384646 0.43700001
0.081259079 -0.051502232 0.43800002
0.082022078 -0.051502232 0.43800002
0.082974076 -0.051619817 0.43900001
0.083929569 -0.051737402 0.44000003
0.084888533 -0.051854987 0.44100001
0.056920726 -0.052940253 0.45700002
0.05771682 -0.052940253 0.45700002
0.058384877 -0.052824412 0.45600003
0.05904945 -0.05270857 0.45500001
0.059842058 -0.05270857 0.45500001
0.060501404 -0.052592725 0.45400003
0.061292272 -0.052592725 0.45400003
0.061809648 -0.052361038 0.45200002
0.062458541 -0.052245196 0.45100003
0.063103952 -0.052129354 0.45000002
0.063745879 -0.052013509 0.44900003
0.064528041 -0.052013509 0.44900003
0.065164737 -0.051897667 0.44800001
0.065797955 -0.051781826 0.44700003
0.066427693 -0.05166598 0.44600001
0.067204624 -0.05166598 0.44600001
0.067829132 -0.051550139 0.44500002
0.068450153 -0.051434293 0.44400004
0.069067694 -0.051318452 0.44300002
0.069681749 -0.05120261 0.44200003
0.070292316 -0.051086765 0.44100001
0.071060538 -0.051086765 0.44100001
0.071665883 -0.050970923 0.44000003
0.072432362 -0.050970923 0.44000003
0.073032483 -0.050855082 0.43900001
0.073461019 -0.050623395 0.43700001
0.074052423 -0.050507553 0.43600002
0.074811935 -0.050507553 0.43600002
0.075571448 -0.050507553 0.43600002
0.07633096 -0.050507553 0.43600002
0.077090472 -0.050507553 0.43600002
0.077849984 -0.050507553 0.43600002
0.078609496 -0.050507553 0.43600002
0.079551049 -0.050623395 0.43700001
0.08049608 -0.050739236 0.43800002
0.081444599 -0.050855082 0.43900001
0.082209341 -0.050855082 0.43900001
0.083163083 -0.050970923 0.44000003
0.084120311 -0.051086765 0.44100001
0.085081026 -0.05120261 0.44200003
0.085850991 -0.05120261 0.44200003
0.055449605 -0.052258261 0.45800003
0.056247443 -0.052258261 0.45800003
0.057045277 -0.052258261 0.45800003
0.05771682 -0.052144159 0.45700002
0.058512911 -0.052144159 0.45700002
0.059179228 -0.05203006 0.45600003
0.059842058 -0.051915959 0.45500001
