# .PCD v0.7 - Point Cloud Data file format
VERSION 0.7
FIELDS x y z
SIZE 4 4 4
TYPE F F F
COUNT 1 1 1
WIDTH 1341
HEIGHT 1
VIEWPOINT 0 0 0 1 0 0 0
POINTS 1341
DATA ascii
0.056680329 -0.050888177 0.47500002
0.057386711 -0.050781045 0.47400004
0.057721175 -0.050352514 0.47000003
0.058539912 -0.050352514 0.47000003
0.059232358 -0.050245382 0.46900001
0.060049355 -0.050245382 0.46900001
0.060866356 -0.050245382 0.46900001
0.061683353 -0.050245382 0.46900001
0.06250035 -0.050245382 0.46900001
0.063317351 -0.050245382 0.46900001
0.064134344 -0.050245382 0.46900001
0.065089837 -0.050352514 0.47000003
0.065908574 -0.050352514 0.47000003
0.066869289 -0.050459646 0.47100002
0.067689769 -0.050459646 0.47100002
0.068510249 -0.050459646 0.47100002
0.069330737 -0.050459646 0.47100002
0.070300154 -0.050566778 0.47200003
0.071122378 -0.050566778 0.47200003
0.071944602 -0.050566778 0.47200003
0.072766826 -0.050566778 0.47200003
0.073589049 -0.050566778 0.47200003
0.074411273 -0.050566778 0.47200003
0.075392894 -0.050673913 0.47300002
0.076216862 -0.050673913 0.47300002
0.077040829 -0.050673913 0.47300002
0.078029409 -0.050781045 0.47400004
0.07885512 -0.050781045 0.47400004
0.07968083 -0.050781045 0.47400004
0.080506533 -0.050781045 0.47400004
0.081332244 -0.050781045 0.47400004
0.082157955 -0.050781045 0.47400004
0.082983658 -0.050781045 0.47400004
0.083809368 -0.050781045 0.47400004
0.084635079 -0.050781045 0.47400004
0.085460782 -0.050781045 0.47400004
0.086286493 -0.050781045 0.47400004
0.087112196 -0.050781045 0.47400004
0.087937906 -0.050781045 0.47400004
0.088763617 -0.050781045 0.47400004
0.08958932 -0.050781045 0.47400004
0.090415031 -0.050781045 0.47400004
0.055970464 -0.050166119 0.47600001
0.056799654 -0.050166119 0.47600001
0.057386711 -0.049955338 0.47400004
0.057721175 -0.049533773 0.47000003
0.058539912 -0.049533773 0.47000003
0.059232358 -0.049428381 0.46900001
0.060049355 -0.049428381 0.46900001
0.060866356 -0.049428381 0.46900001
0.061683353 -0.049428381 0.46900001
0.06250035 -0.049428381 0.46900001
0.063317351 -0.049428381 0.46900001
0.064134344 -0.049428381 0.46900001
0.064951345 -0.049428381 0.46900001
0.065908574 -0.049533773 0.47000003
0.066727318 -0.049533773 0.47000003
0.067546055 -0.049533773 0.47000003
0.068364792 -0.049533773 0.47000003
0.069330737 -0.049639165 0.47100002
0.070151217 -0.049639165 0.47100002
0.070971698 -0.049639165 0.47100002
0.071944602 -0.049744554 0.47200003
0.072766826 -0.049744554 0.47200003
0.073589049 -0.049744554 0.47200003
0.074411273 -0.049744554 0.47200003
0.075233504 -0.049744554 0.47200003
0.076055728 -0.049744554 0.47200003
0.076877952 -0.049744554 0.47200003
0.077864788 -0.049849946 0.47300002
0.078688756 -0.049849946 0.47300002
0.079512723 -0.049849946 0.47300002
0.080506533 -0.049955338 0.47400004
0.081332244 -0.049955338 0.47400004
0.082157955 -0.049955338 0.47400004
0.082983658 -0.049955338 0.47400004
0.083809368 -0.049955338 0.47400004
0.084635079 -0.049955338 0.47400004
0.085460782 -0.049955338 0.47400004
0.086286493 -0.049955338 0.47400004
0.087112196 -0.049955338 0.47400004
0.087937906 -0.049955338 0.47400004
0.088763617 -0.049955338 0.47400004
0.08958932 -0.049955338 0.47400004
0.090415031 -0.049955338 0.47400004
0.055852879 -0.049233276 0.47500002
0.057721175 -0.048715033 0.47000003
0.058415361 -0.048611384 0.46900001
0.059232358 -0.048611384 0.46900001
0.060049355 -0.048611384 0.46900001
0.060866356 -0.048611384 0.46900001
0.061683353 -0.048611384 0.46900001
0.06250035 -0.048611384 0.46900001
0.063317351 -0.048611384 0.46900001
0.064134344 -0.048611384 0.46900001
0.064951345 -0.048611384 0.46900001
0.065908574 -0.048715033 0.47000003
0.066727318 -0.048715033 0.47000003
0.067546055 -0.048715033 0.47000003
0.068364792 -0.048715033 0.47000003
0.069183536 -0.048715033 0.47000003
0.070151217 -0.048818681 0.47100002
0.070971698 -0.048818681 0.47100002
0.071792178 -0.048818681 0.47100002
0.072612658 -0.048818681 0.47100002
0.073589049 -0.04892233 0.47200003
0.074411273 -0.04892233 0.47200003
0.075233504 -0.04892233 0.47200003
0.076055728 -0.04892233 0.47200003
0.076877952 -0.04892233 0.47200003
0.077700175 -0.04892233 0.47200003
0.078522399 -0.04892233 0.47200003
0.079344623 -0.04892233 0.47200003
0.08033669 -0.049025979 0.47300002
0.08098907 -0.04892233 0.47200003
0.081984624 -0.049025979 0.47300002
0.082633518 -0.04892233 0.47200003
0.083632551 -0.049025979 0.47300002
0.084456518 -0.049025979 0.47300002
0.085460782 -0.049129628 0.47400004
0.086286493 -0.049129628 0.47400004
0.087112196 -0.049129628 0.47400004
0.087937906 -0.049129628 0.47400004
0.088763617 -0.049129628 0.47400004
0.08958932 -0.049129628 0.47400004
0.090415031 -0.049129628 0.47400004
0.058290809 -0.047692478 0.46800002
0.059106063 -0.047692478 0.46800002
0.060049355 -0.047794387 0.46900001
0.060736574 -0.047692478 0.46800002
0.061551832 -0.047692478 0.46800002
0.062367089 -0.047692478 0.46800002
0.063182347 -0.047692478 0.46800002
0.064134344 -0.047794387 0.46900001
0.064951345 -0.047794387 0.46900001
0.065768346 -0.047794387 0.46900001
0.06658534 -0.047794387 0.46900001
0.067546055 -0.047896292 0.47000003
0.068364792 -0.047896292 0.47000003
0.069183536 -0.047896292 0.47000003
0.070002273 -0.047896292 0.47000003
0.070821017 -0.047896292 0.47000003
0.071792178 -0.047998201 0.47100002
0.072612658 -0.047998201 0.47100002
0.073433146 -0.047998201 0.47100002
0.074253626 -0.047998201 0.47100002
0.075233504 -0.048100106 0.47200003
0.076055728 -0.048100106 0.47200003
0.076877952 -0.048100106 0.47200003
0.077700175 -0.048100106 0.47200003
0.078522399 -0.048100106 0.47200003
0.079344623 -0.048100106 0.47200003
0.080166847 -0.048100106 0.47200003
0.08098907 -0.048100106 0.47200003
0.081811294 -0.048100106 0.47200003
0.082633518 -0.048100106 0.47200003
0.083455741 -0.048100106 0.47200003
0.084277965 -0.048100106 0.47200003
0.085280485 -0.048202015 0.47300002
0.086104453 -0.048202015 0.47300002
0.08692842 -0.048202015 0.47300002
0.087752387 -0.048202015 0.47300002
0.088576354 -0.048202015 0.47300002
0.08958932 -0.048303921 0.47400004
0.090224281 -0.048202015 0.47300002
0.091048248 -0.048202015 0.47300002
0.059106063 -0.046877224 0.46800002
0.059921321 -0.046877224 0.46800002
0.060736574 -0.046877224 0.46800002
0.061551832 -0.046877224 0.46800002
0.062367089 -0.046877224 0.46800002
0.063182347 -0.046877224 0.46800002
0.063997597 -0.046877224 0.46800002
0.064812854 -0.046877224 0.46800002
0.065768346 -0.04697739 0.46900001
0.06658534 -0.04697739 0.46900001
0.06740234 -0.04697739 0.46900001
0.068219334 -0.04697739 0.46900001
0.069036335 -0.04697739 0.46900001
0.070002273 -0.047077551 0.47000003
0.070821017 -0.047077551 0.47000003
0.071639754 -0.047077551 0.47000003
0.072458498 -0.047077551 0.47000003
0.073433146 -0.047177717 0.47100002
0.074253626 -0.047177717 0.47100002
0.075074106 -0.047177717 0.47100002
0.075894587 -0.047177717 0.47100002
0.076715074 -0.047177717 0.47100002
0.077700175 -0.047277883 0.47200003
0.078356035 -0.047177717 0.47100002
0.079176515 -0.047177717 0.47100002
0.080166847 -0.047277883 0.47200003
0.080817483 -0.047177717 0.47100002
0.081637964 -0.047177717 0.47100002
0.082458444 -0.047177717 0.47100002
0.083455741 -0.047277883 0.47200003
0.084277965 -0.047277883 0.47200003
0.085100189 -0.047277883 0.47200003
0.086104453 -0.047378048 0.47300002
0.086744636 -0.047277883 0.47200003
0.087752387 -0.047378048 0.47300002
0.088389084 -0.047277883 0.47200003
0.089211307 -0.047277883 0.47200003
0.090033531 -0.047277883 0.47200003
0.090855755 -0.047277883 0.47200003
0.093369462 -0.043471612 0.43400002
0.099116325 -0.043671943 0.43600002
0.1011623 -0.043571778 0.43500003
0.10192007 -0.043571778 0.43500003
0.1024418 -0.043471612 0.43400002
0.059232358 -0.046160389 0.46900001
0.060049355 -0.046160389 0.46900001
0.060736574 -0.046061967 0.46800002
0.061551832 -0.046061967 0.46800002
0.062367089 -0.046061967 0.46800002
0.063182347 -0.046061967 0.46800002
0.063997597 -0.046061967 0.46800002
0.064812854 -0.046061967 0.46800002
0.065628111 -0.046061967 0.46800002
0.066443369 -0.046061967 0.46800002
0.067258626 -0.046061967 0.46800002
0.068073884 -0.046061967 0.46800002
0.069036335 -0.046160389 0.46900001
0.069853336 -0.046160389 0.46900001
0.070670329 -0.046160389 0.46900001
0.071639754 -0.046258815 0.47000003
0.072458498 -0.046258815 0.47000003
0.073277235 -0.046258815 0.47000003
0.074095972 -0.046258815 0.47000003
0.075074106 -0.046357237 0.47100002
0.075894587 -0.046357237 0.47100002
0.076552197 -0.046258815 0.47000003
0.077535555 -0.046357237 0.47100002
0.078356035 -0.046357237 0.47100002
0.079176515 -0.046357237 0.47100002
0.079997003 -0.046357237 0.47100002
0.080817483 -0.046357237 0.47100002
0.081637964 -0.046357237 0.47100002
0.082458444 -0.046357237 0.47100002
0.083278932 -0.046357237 0.47100002
0.084099412 -0.046357237 0.47100002
0.085100189 -0.046455659 0.47200003
0.085922413 -0.046455659 0.47200003
0.086744636 -0.046455659 0.47200003
0.08756686 -0.046455659 0.47200003
0.088389084 -0.046455659 0.47200003
0.089211307 -0.046455659 0.47200003
0.090033531 -0.046455659 0.47200003
0.090855755 -0.046455659 0.47200003
0.091857411 -0.042715583 0.43400002
0.092613436 -0.042715583 0.43400002
0.093369462 -0.042715583 0.43400002
0.094125494 -0.042715583 0.43400002
0.09488152 -0.042715583 0.43400002
0.097597301 -0.042912431 0.43600002
0.098356813 -0.042912431 0.43600002
0.098888993 -0.042814009 0.43500003
0.099875838 -0.042912431 0.43600002
0.10040453 -0.042814009 0.43500003
0.1011623 -0.042814009 0.43500003
0.10168577 -0.042715583 0.43400002
0.059106063 -0.045246709 0.46800002
0.059921321 -0.045246709 0.46800002
0.060736574 -0.045246709 0.46800002
0.061551832 -0.045246709 0.46800002
0.062367089 -0.045246709 0.46800002
0.063182347 -0.045246709 0.46800002
0.063997597 -0.045246709 0.46800002
0.064812854 -0.045246709 0.46800002
0.065628111 -0.045246709 0.46800002
0.066443369 -0.045246709 0.46800002
0.067258626 -0.045246709 0.46800002
0.068073884 -0.045246709 0.46800002
0.068889134 -0.045246709 0.46800002
0.069704391 -0.045246709 0.46800002
0.070519648 -0.045246709 0.46800002
0.07148733 -0.045343392 0.46900001
0.072304331 -0.045343392 0.46900001
0.073121324 -0.045343392 0.46900001
0.074095972 -0.045440074 0.47000003
0.074914716 -0.045440074 0.47000003
0.075733453 -0.045440074 0.47000003
0.076552197 -0.045440074 0.47000003
0.077370934 -0.045440074 0.47000003
0.078189678 -0.045440074 0.47000003
0.079008415 -0.045440074 0.47000003
0.079827152 -0.045440074 0.47000003
0.080645896 -0.045440074 0.47000003
0.081464633 -0.045440074 0.47000003
0.082283378 -0.045440074 0.47000003
0.083102114 -0.045440074 0.47000003
0.083920859 -0.045440074 0.47000003
0.084739596 -0.045440074 0.47000003
0.085740373 -0.045536753 0.47100002
0.086560853 -0.045536753 0.47100002
0.087381341 -0.045536753 0.47100002
0.088201821 -0.045536753 0.47100002
0.089022301 -0.045536753 0.47100002
0.089842781 -0.045536753 0.47100002
0.090663269 -0.045536753 0.47100002
0.091483749 -0.045536753 0.47100002
0.09312471 -0.045536753 0.47100002
0.092400044 -0.041862875 0.43300003
0.093154326 -0.041862875 0.43300003
0.094125494 -0.041959558 0.43400002
0.09488152 -0.041959558 0.43400002
0.095637545 -0.041959558 0.43400002
0.096393578 -0.041959558 0.43400002
0.097149603 -0.041959558 0.43400002
0.097905628 -0.041959558 0.43400002
0.098888993 -0.042056236 0.43500003
0.099646762 -0.042056236 0.43500003
0.10040453 -0.042056236 0.43500003
0.10092974 -0.041959558 0.43400002
0.10168577 -0.041959558 0.43400002
0.1024418 -0.041959558 0.43400002
0.10319783 -0.041959558 0.43400002
0.10395385 -0.041959558 0.43400002
0.059921321 -0.044431455 0.46800002
0.060736574 -0.044431455 0.46800002
0.061551832 -0.044431455 0.46800002
0.062367089 -0.044431455 0.46800002
0.063182347 -0.044431455 0.46800002
0.063997597 -0.044431455 0.46800002
0.064812854 -0.044431455 0.46800002
0.065628111 -0.044431455 0.46800002
0.066443369 -0.044431455 0.46800002
0.067258626 -0.044431455 0.46800002
0.068073884 -0.044431455 0.46800002
0.068889134 -0.044431455 0.46800002
0.069704391 -0.044431455 0.46800002
0.070519648 -0.044431455 0.46800002
0.071334906 -0.044431455 0.46800002
0.072150163 -0.044431455 0.46800002
0.072965413 -0.044431455 0.46800002
0.073938325 -0.044526394 0.46900001
0.074755318 -0.044526394 0.46900001
0.075572319 -0.044526394 0.46900001
0.07638932 -0.044526394 0.46900001
0.077206314 -0.044526394 0.46900001
0.078023314 -0.044526394 0.46900001
0.079008415 -0.044621333 0.47000003
0.079657309 -0.044526394 0.46900001
0.08047431 -0.044526394 0.46900001
0.081291303 -0.044526394 0.46900001
0.082108304 -0.044526394 0.46900001
0.082925305 -0.044526394 0.46900001
0.083742298 -0.044526394 0.46900001
0.084739596 -0.044621333 0.47000003
0.085558333 -0.044621333 0.47000003
0.086377077 -0.044621333 0.47000003
0.087195814 -0.044621333 0.47000003
0.088014558 -0.044621333 0.47000003
0.088833295 -0.044621333 0.47000003
0.089652039 -0.044621333 0.47000003
0.090470776 -0.044621333 0.47000003
0.091289513 -0.044621333 0.47000003
0.092400044 -0.04110859 0.43300003
0.093154326 -0.04110859 0.43300003
0.093908615 -0.04110859 0.43300003
0.094662897 -0.04110859 0.43300003
0.095417187 -0.04110859 0.43300003
0.096171468 -0.04110859 0.43300003
0.097149603 -0.041203529 0.43400002
0.097905628 -0.041203529 0.43400002
0.098661661 -0.041203529 0.43400002
0.099417686 -0.041203529 0.43400002
0.10017372 -0.041203529 0.43400002
0.10092974 -0.041203529 0.43400002
0.10168577 -0.041203529 0.43400002
0.1024418 -0.041203529 0.43400002
0.10319783 -0.041203529 0.43400002
0.10395385 -0.041203529 0.43400002
0.10470989 -0.041203529 0.43400002
0.060736574 -0.043616198 0.46800002
0.06142031 -0.043523002 0.46700001
0.062367089 -0.043616198 0.46800002
0.063182347 -0.043616198 0.46800002
0.063860856 -0.043523002 0.46700001
0.06467437 -0.043523002 0.46700001
0.065347649 -0.043429803 0.46600002
0.066301398 -0.043523002 0.46700001
0.067258626 -0.043616198 0.46800002
0.068073884 -0.043616198 0.46800002
0.06874194 -0.043523002 0.46700001
0.069555454 -0.043523002 0.46700001
0.070519648 -0.043616198 0.46800002
0.071334906 -0.043616198 0.46800002
0.072150163 -0.043616198 0.46800002
0.072965413 -0.043616198 0.46800002
0.073780671 -0.043616198 0.46800002
0.074595928 -0.043616198 0.46800002
0.075411186 -0.043616198 0.46800002
0.076226443 -0.043616198 0.46800002
0.077206314 -0.043709397 0.46900001
0.078023314 -0.043709397 0.46900001
0.078840315 -0.043709397 0.46900001
0.079657309 -0.043709397 0.46900001
0.08047431 -0.043709397 0.46900001
0.081291303 -0.043709397 0.46900001
0.082108304 -0.043709397 0.46900001
0.082925305 -0.043709397 0.46900001
0.083563745 -0.043616198 0.46800002
0.084559299 -0.043709397 0.46900001
0.0853763 -0.043709397 0.46900001
0.086193293 -0.043709397 0.46900001
0.087010294 -0.043709397 0.46900001
0.087827288 -0.043709397 0.46900001
0.088644288 -0.043709397 0.46900001
0.091095284 -0.043709397 0.46900001
0.089720845 -0.040167909 0.43100002
0.090471648 -0.040167909 0.43100002
0.09122245 -0.040167909 0.43100002
0.092186645 -0.040261105 0.43200001
0.092939191 -0.040261105 0.43200001
0.093908615 -0.040354304 0.43300003
0.094662897 -0.040354304 0.43300003
0.095417187 -0.040354304 0.43300003
0.096171468 -0.040354304 0.43300003
0.096925758 -0.040354304 0.43300003
0.09768004 -0.040354304 0.43300003
0.098434329 -0.040354304 0.43300003
0.099417686 -0.0404475 0.43400002
0.10017372 -0.0404475 0.43400002
0.10092974 -0.0404475 0.43400002
0.10168577 -0.0404475 0.43400002
0.1024418 -0.0404475 0.43400002
0.10319783 -0.0404475 0.43400002
0.10395385 -0.0404475 0.43400002
0.060606796 -0.042709488 0.46700001
0.061288789 -0.042618033 0.46600002
0.062233824 -0.042709488 0.46700001
0.062912337 -0.042618033 0.46600002
0.063724108 -0.042618033 0.46600002
0.064535879 -0.042618033 0.46600002
0.065347649 -0.042618033 0.46600002
0.06615942 -0.042618033 0.46600002
0.066971198 -0.042618033 0.46600002
0.067928426 -0.042709488 0.46700001
0.068594739 -0.042618033 0.46600002
0.069406509 -0.042618033 0.46600002
0.07021828 -0.042618033 0.46600002
0.071182482 -0.042709488 0.46700001
0.071995996 -0.042709488 0.46700001
0.07280951 -0.042709488 0.46700001
0.073623024 -0.042709488 0.46700001
0.074436538 -0.042709488 0.46700001
0.075250052 -0.042709488 0.46700001
0.076063566 -0.042709488 0.46700001
0.0770417 -0.042800944 0.46800002
0.07785695 -0.042800944 0.46800002
0.078672208 -0.042800944 0.46800002
0.079487465 -0.042800944 0.46800002
0.080302723 -0.042800944 0.46800002
0.08111798 -0.042800944 0.46800002
0.08193323 -0.042800944 0.46800002
0.082748488 -0.042800944 0.46800002
0.083563745 -0.042800944 0.46800002
0.084379002 -0.042800944 0.46800002
0.08519426 -0.042800944 0.46800002
0.088455282 -0.042800944 0.46800002
0.089720845 -0.039417107 0.43100002
0.090471648 -0.039417107 0.43100002
0.09122245 -0.039417107 0.43100002
0.091973253 -0.039417107 0.43100002
0.092724055 -0.039417107 0.43100002
0.093691736 -0.039508563 0.43200001
0.094444275 -0.039508563 0.43200001
0.095196821 -0.039508563 0.43200001
0.095949367 -0.039508563 0.43200001
0.096701913 -0.039508563 0.43200001
0.097454451 -0.039508563 0.43200001
0.098206997 -0.039508563 0.43200001
0.099188618 -0.039600018 0.43300003
0.0999429 -0.039600018 0.43300003
0.10092974 -0.039691474 0.43400002
0.10168577 -0.039691474 0.43400002
0.1024418 -0.039691474 0.43400002
0.10319783 -0.039691474 0.43400002
0.10395385 -0.039691474 0.43400002
0.061288789 -0.041806262 0.46600002
0.062100563 -0.041806262 0.46600002
0.062912337 -0.041806262 0.46600002
0.063724108 -0.041806262 0.46600002
0.064535879 -0.041806262 0.46600002
0.065347649 -0.041806262 0.46600002
0.06615942 -0.041806262 0.46600002
0.066971198 -0.041806262 0.46600002
0.067782968 -0.041806262 0.46600002
0.068594739 -0.041806262 0.46600002
0.069406509 -0.041806262 0.46600002
0.07021828 -0.041806262 0.46600002
0.071030058 -0.041806262 0.46600002
0.071841829 -0.041806262 0.46600002
0.072653599 -0.041806262 0.46600002
0.07346537 -0.041806262 0.46600002
0.07427714 -0.041806262 0.46600002
0.075088918 -0.041806262 0.46600002
0.075900689 -0.041806262 0.46600002
0.07687708 -0.041895974 0.46700001
0.077690594 -0.041895974 0.46700001
0.078504108 -0.041895974 0.46700001
0.079317622 -0.041895974 0.46700001
0.080131136 -0.041895974 0.46700001
0.08094465 -0.041895974 0.46700001
0.083385192 -0.041895974 0.46700001
0.082771137 -0.038576592 0.43000001
0.083520196 -0.038576592 0.43000001
0.086315237 -0.038486879 0.42900002
0.087062553 -0.038486879 0.42900002
0.088014558 -0.038576592 0.43000001
0.088763617 -0.038576592 0.43000001
0.089512676 -0.038576592 0.43000001
0.090261735 -0.038576592 0.43000001
0.09122245 -0.038666304 0.43100002
0.091973253 -0.038666304 0.43100002
0.092724055 -0.038666304 0.43100002
0.093474858 -0.038666304 0.43100002
0.09422566 -0.038666304 0.43100002
0.094976462 -0.038666304 0.43100002
0.095727257 -0.038666304 0.43100002
0.09647806 -0.038666304 0.43100002
0.097454451 -0.038756017 0.43200001
0.098206997 -0.038756017 0.43200001
0.098959543 -0.038756017 0.43200001
0.099712089 -0.038756017 0.43200001
0.10069719 -0.038845733 0.43300003
0.10145147 -0.038845733 0.43300003
0.10220576 -0.038845733 0.43300003
0.10296004 -0.038845733 0.43300003
0.10371433 -0.038845733 0.43300003
0.10422735 -0.038756017 0.43200001
0.10473689 -0.038666304 0.43100002
0.065207422 -0.040906519 0.46500003
0.066017449 -0.040906519 0.46500003
0.066827476 -0.040906519 0.46500003
0.067637511 -0.040906519 0.46500003
0.068447538 -0.040906519 0.46500003
0.069257572 -0.040906519 0.46500003
0.070067599 -0.040906519 0.46500003
0.070877627 -0.040906519 0.46500003
0.071687661 -0.040906519 0.46500003
0.072497688 -0.040906519 0.46500003
0.073307723 -0.040906519 0.46500003
0.07411775 -0.040906519 0.46500003
0.075088918 -0.040994488 0.46600002
0.075737812 -0.040906519 0.46500003
0.076547839 -0.040906519 0.46500003
0.077357873 -0.040906519 0.46500003
0.078336 -0.040994488 0.46600002
0.079147778 -0.040994488 0.46600002
0.079959549 -0.040994488 0.46600002
0.08077132 -0.040994488 0.46600002
0.08158309 -0.040994488 0.46600002
0.081831329 -0.03773956 0.42900002
0.082578644 -0.03773956 0.42900002
0.08332596 -0.03773956 0.42900002
0.084073283 -0.03773956 0.42900002
0.084820598 -0.03773956 0.42900002
0.085567914 -0.03773956 0.42900002
0.086315237 -0.03773956 0.42900002
0.087062553 -0.03773956 0.42900002
0.087809868 -0.03773956 0.42900002
0.088763617 -0.037827533 0.43000001
0.089512676 -0.037827533 0.43000001
0.090261735 -0.037827533 0.43000001
0.091010794 -0.037827533 0.43000001
0.091759853 -0.037827533 0.43000001
0.092724055 -0.037915502 0.43100002
0.093474858 -0.037915502 0.43100002
0.09422566 -0.037915502 0.43100002
0.094976462 -0.037915502 0.43100002
0.095727257 -0.037915502 0.43100002
0.09647806 -0.037915502 0.43100002
0.097454451 -0.038003474 0.43200001
0.098206997 -0.038003474 0.43200001
0.098959543 -0.038003474 0.43200001
0.099712089 -0.038003474 0.43200001
0.10069719 -0.038091447 0.43300003
0.10145147 -0.038091447 0.43300003
0.10220576 -0.038091447 0.43300003
0.10296004 -0.038091447 0.43300003
0.1034748 -0.038003474 0.43200001
0.10422735 -0.038003474 0.43200001
0.10473689 -0.037915502 0.43100002
0.10548769 -0.037915502 0.43100002
0.066683762 -0.040010259 0.46400002
0.067492053 -0.040010259 0.46400002
0.068153143 -0.039924029 0.46300003
0.068959691 -0.039924029 0.46300003
0.069766231 -0.039924029 0.46300003
0.070572779 -0.039924029 0.46300003
0.071379326 -0.039924029 0.46300003
0.072185874 -0.039924029 0.46300003
0.073150069 -0.040010259 0.46400002
0.07395836 -0.040010259 0.46400002
0.074927777 -0.040096488 0.46500003
0.075574934 -0.040010259 0.46400002
0.076547839 -0.040096488 0.46500003
0.077357873 -0.040096488 0.46500003
0.0781679 -0.040096488 0.46500003
0.078977928 -0.040096488 0.46500003
0.079787962 -0.040096488 0.46500003
0.080597989 -0.040096488 0.46500003
0.078658275 -0.036906015 0.42800003
0.081831329 -0.036992244 0.42900002
0.082578644 -0.036992244 0.42900002
0.083131731 -0.036906015 0.42800003
0.084073283 -0.036992244 0.42900002
0.084820598 -0.036992244 0.42900002
0.085567914 -0.036992244 0.42900002
0.086315237 -0.036992244 0.42900002
0.087062553 -0.036992244 0.42900002
0.087809868 -0.036992244 0.42900002
0.088557191 -0.036992244 0.42900002
0.089512676 -0.037078474 0.43000001
0.090051822 -0.036992244 0.42900002
0.091010794 -0.037078474 0.43000001
0.091759853 -0.037078474 0.43000001
0.092508912 -0.037078474 0.43000001
0.093257979 -0.037078474 0.43000001
0.09422566 -0.037164703 0.43100002
0.094756097 -0.037078474 0.43000001
0.095505156 -0.037078474 0.43000001
0.096254215 -0.037078474 0.43000001
0.097228862 -0.037164703 0.43100002
0.097752333 -0.037078474 0.43000001
0.098730467 -0.037164703 0.43100002
0.099250458 -0.037078474 0.43000001
0.099999517 -0.037078474 0.43000001
0.10051428 -0.036992244 0.42900002
0.10126159 -0.036992244 0.42900002
0.10200892 -0.036992244 0.42900002
0.10323528 -0.037164703 0.43100002
0.10398608 -0.037164703 0.43100002
0.10473689 -0.037164703 0.43100002
0.066540048 -0.039117485 0.46300003
0.067346595 -0.039117485 0.46300003
0.068153143 -0.039117485 0.46300003
0.068959691 -0.039117485 0.46300003
0.06961555 -0.039032996 0.46200001
0.070420355 -0.039032996 0.46200001
0.071379326 -0.039117485 0.46300003
0.072185874 -0.039117485 0.46300003
0.072992414 -0.039117485 0.46300003
0.073798962 -0.039117485 0.46300003
0.07460551 -0.039117485 0.46300003
0.075412057 -0.039117485 0.46300003
0.076383218 -0.039201971 0.46400002
0.077191509 -0.039201971 0.46400002
0.0779998 -0.039201971 0.46400002
0.075852782 -0.036244925 0.42900002
0.076600097 -0.036244925 0.42900002
0.07734742 -0.036244925 0.42900002
0.078094736 -0.036244925 0.42900002
0.078842051 -0.036244925 0.42900002
0.079403847 -0.036160439 0.42800003
0.08033669 -0.036244925 0.42900002
0.081084006 -0.036244925 0.42900002
0.081640579 -0.036160439 0.42800003
0.082386151 -0.036160439 0.42800003
0.083131731 -0.036160439 0.42800003
0.083877303 -0.036160439 0.42800003
0.084622882 -0.036160439 0.42800003
0.085368454 -0.036160439 0.42800003
0.086114034 -0.036160439 0.42800003
0.086859606 -0.036160439 0.42800003
0.087605186 -0.036160439 0.42800003
0.088557191 -0.036244925 0.42900002
0.089304507 -0.036244925 0.42900002
0.090051822 -0.036244925 0.42900002
0.090799145 -0.036244925 0.42900002
0.091546461 -0.036244925 0.42900002
0.092293777 -0.036244925 0.42900002
0.0930411 -0.036244925 0.42900002
0.093788415 -0.036244925 0.42900002
0.094535731 -0.036244925 0.42900002
0.095283054 -0.036244925 0.42900002
0.096030369 -0.036244925 0.42900002
0.096777685 -0.036244925 0.42900002
0.097525008 -0.036244925 0.42900002
0.098272324 -0.036244925 0.42900002
0.099019639 -0.036244925 0.42900002
0.099766962 -0.036244925 0.42900002
0.10051428 -0.036244925 0.42900002
0.10126159 -0.036244925 0.42900002
0.10200892 -0.036244925 0.42900002
0.10275623 -0.036244925 0.42900002
0.10350355 -0.036244925 0.42900002
0.10425087 -0.036244925 0.42900002
0.10499819 -0.036244925 0.42900002
0.10649282 -0.036244925 0.42900002
0.068810746 -0.038228191 0.46200001
0.06946487 -0.038145449 0.46100003
0.070267931 -0.038145449 0.46100003
0.071070991 -0.038145449 0.46100003
0.072029963 -0.038228191 0.46200001
0.073639572 -0.038228191 0.46200001
0.07460551 -0.038310938 0.46300003
0.075412057 -0.038310938 0.46300003
0.076218605 -0.038310938 0.46300003
0.077025145 -0.038310938 0.46300003
0.077831693 -0.038310938 0.46300003
0.075852782 -0.035497606 0.42900002
0.076600097 -0.035497606 0.42900002
0.07734742 -0.035497606 0.42900002
0.078094736 -0.035497606 0.42900002
0.078842051 -0.035497606 0.42900002
0.079589374 -0.035497606 0.42900002
0.08033669 -0.035497606 0.42900002
0.080894999 -0.035414863 0.42800003
0.081640579 -0.035414863 0.42800003
0.082386151 -0.035414863 0.42800003
0.083131731 -0.035414863 0.42800003
0.08368133 -0.035332117 0.42700002
0.084425166 -0.035332117 0.42700002
0.085168995 -0.035332117 0.42700002
0.085912831 -0.035332117 0.42700002
0.086656667 -0.035332117 0.42700002
0.087605186 -0.035414863 0.42800003
0.088350758 -0.035414863 0.42800003
0.089304507 -0.035497606 0.42900002
0.089841917 -0.035414863 0.42800003
0.090587489 -0.035414863 0.42800003
0.091333069 -0.035414863 0.42800003
0.092293777 -0.035497606 0.42900002
0.0930411 -0.035497606 0.42900002
0.093569793 -0.035414863 0.42800003
0.094535731 -0.035497606 0.42900002
0.095060945 -0.035414863 0.42800003
0.096030369 -0.035497606 0.42900002
0.096552096 -0.035414863 0.42800003
0.097297676 -0.035414863 0.42800003
0.098043248 -0.035414863 0.42800003
0.098788828 -0.035414863 0.42800003
0.0995344 -0.035414863 0.42800003
0.10027998 -0.035414863 0.42800003
0.10102555 -0.035414863 0.42800003
0.10177113 -0.035414863 0.42800003
0.1025167 -0.035414863 0.42800003
0.10350355 -0.035497606 0.42900002
0.10425087 -0.035497606 0.42900002
0.10499819 -0.035497606 0.42900002
0.1057455 -0.035497606 0.42900002
0.10649282 -0.035497606 0.42900002
0.10724014 -0.035497606 0.42900002
0.10922689 -0.035414863 0.42800003
0.068661809 -0.037342384 0.46100003
0.06946487 -0.037342384 0.46100003
0.070267931 -0.037342384 0.46100003
0.071070991 -0.037342384 0.46100003
0.071874052 -0.037342384 0.46100003
0.072677113 -0.037342384 0.46100003
0.073480174 -0.037342384 0.46100003
0.074283242 -0.037342384 0.46100003
0.075086303 -0.037342384 0.46100003
0.076053984 -0.037423387 0.46200001
0.076858789 -0.037423387 0.46200001
0.077495486 -0.037342384 0.46100003
0.07795886 -0.037180379 0.45900002
0.078758441 -0.037180379 0.45900002
0.079558015 -0.037180379 0.45900002
0.075852782 -0.03475029 0.42900002
0.076600097 -0.03475029 0.42900002
0.07734742 -0.03475029 0.42900002
0.078094736 -0.03475029 0.42900002
0.078842051 -0.03475029 0.42900002
0.079589374 -0.03475029 0.42900002
0.080149427 -0.034669288 0.42800003
0.080894999 -0.034669288 0.42800003
0.081640579 -0.034669288 0.42800003
0.082193665 -0.034588285 0.42700002
0.082937494 -0.034588285 0.42700002
0.08368133 -0.034588285 0.42700002
0.084425166 -0.034588285 0.42700002
0.084969543 -0.034507278 0.42600003
0.085912831 -0.034588285 0.42700002
0.086453721 -0.034507278 0.42600003
0.087400503 -0.034588285 0.42700002
0.088144332 -0.034588285 0.42700002
0.089096338 -0.034669288 0.42800003
0.089841917 -0.034669288 0.42800003
0.090375833 -0.034588285 0.42700002
0.091119669 -0.034588285 0.42700002
0.092078641 -0.034669288 0.42800003
0.092824221 -0.034669288 0.42800003
0.09335117 -0.034588285 0.42700002
0.094315372 -0.034669288 0.42800003
0.094838843 -0.034588285 0.42700002
0.095806524 -0.034669288 0.42800003
0.096326508 -0.034588285 0.42700002
0.097297676 -0.034669288 0.42800003
0.098043248 -0.034669288 0.42800003
0.098788828 -0.034669288 0.42800003
0.0995344 -0.034669288 0.42800003
0.10004568 -0.034588285 0.42700002
0.10102555 -0.034669288 0.42800003
0.10153335 -0.034588285 0.42700002
0.1025167 -0.034669288 0.42800003
0.10326228 -0.034669288 0.42800003
0.10400786 -0.034669288 0.42800003
0.10475343 -0.034669288 0.42800003
0.10549901 -0.034669288 0.42800003
0.10624459 -0.034669288 0.42800003
0.10699017 -0.034669288 0.42800003
0.10773574 -0.034669288 0.42800003
0.10848132 -0.034669288 0.42800003
0.10897169 -0.034588285 0.42700002
0.10994198 -0.034426276 0.42500001
0.070916824 -0.036460061 0.46000001
0.071718141 -0.036460061 0.46000001
0.074122101 -0.036460061 0.46000001
0.074923426 -0.036460061 0.46000001
0.075724743 -0.036460061 0.46000001
0.076526068 -0.036460061 0.46000001
0.077159278 -0.036380801 0.45900002
0.07795886 -0.036380801 0.45900002
0.078758441 -0.036380801 0.45900002
0.079558015 -0.036380801 0.45900002
0.075852782 -0.034002971 0.42900002
0.076600097 -0.034002971 0.42900002
0.07734742 -0.034002971 0.42900002
0.078094736 -0.034002971 0.42900002
0.078658275 -0.033923712 0.42800003
0.079403847 -0.033923712 0.42800003
0.080149427 -0.033923712 0.42800003
0.080705993 -0.033844449 0.42700002
0.081449829 -0.033844449 0.42700002
0.082193665 -0.033844449 0.42700002
0.082937494 -0.033844449 0.42700002
0.083485357 -0.033765189 0.42600003
0.08422745 -0.033765189 0.42600003
0.084770083 -0.033685926 0.42500001
0.085711628 -0.033765189 0.42600003
0.086250782 -0.033685926 0.42500001
0.086991131 -0.033685926 0.42500001
0.087731481 -0.033685926 0.42500001
0.08847183 -0.033685926 0.42500001
0.089632004 -0.033844449 0.42700002
0.090375833 -0.033844449 0.42700002
0.091119669 -0.033844449 0.42700002
0.091863506 -0.033844449 0.42700002
0.092607342 -0.033844449 0.42700002
0.09335117 -0.033844449 0.42700002
0.094095007 -0.033844449 0.42700002
0.094838843 -0.033844449 0.42700002
0.095582671 -0.033844449 0.42700002
0.096326508 -0.033844449 0.42700002
0.097070344 -0.033844449 0.42700002
0.09781418 -0.033844449 0.42700002
0.098558009 -0.033844449 0.42700002
0.099301845 -0.033844449 0.42700002
0.099811383 -0.033765189 0.42600003
0.10078951 -0.033844449 0.42700002
0.10153335 -0.033844449 0.42700002
0.10227718 -0.033844449 0.42700002
0.10302102 -0.033844449 0.42700002
0.10352184 -0.033765189 0.42600003
0.10450868 -0.033844449 0.42700002
0.10525252 -0.033844449 0.42700002
0.10599635 -0.033844449 0.42700002
0.10674018 -0.033844449 0.42700002
0.10748402 -0.033844449 0.42700002
0.10822786 -0.033844449 0.42700002
0.10897169 -0.033844449 0.42700002
0.10971552 -0.033844449 0.42700002
0.10994198 -0.033685926 0.42500001
0.076359704 -0.035581224 0.45900002
0.077159278 -0.035581224 0.45900002
0.077789016 -0.035503704 0.45800003
0.078586854 -0.035503704 0.45800003
0.076600097 -0.033255652 0.42900002
0.07734742 -0.033255652 0.42900002
0.078094736 -0.033255652 0.42900002
0.078658275 -0.033178136 0.42800003
0.079403847 -0.033178136 0.42800003
0.079962157 -0.033100616 0.42700002
0.080705993 -0.033100616 0.42700002
0.081449829 -0.033100616 0.42700002
0.082001172 -0.033023097 0.42600003
0.082743265 -0.033023097 0.42600003
0.083289377 -0.032945577 0.42500001
0.084029727 -0.032945577 0.42500001
0.084770083 -0.032945577 0.42500001
0.085510433 -0.032945577 0.42500001
0.086250782 -0.032945577 0.42500001
0.086991131 -0.032945577 0.42500001
0.087731481 -0.032945577 0.42500001
0.08847183 -0.032945577 0.42500001
0.089212179 -0.032945577 0.42500001
0.089952528 -0.032945577 0.42500001
0.090692878 -0.032945577 0.42500001
0.091433227 -0.032945577 0.42500001
0.092173584 -0.032945577 0.42500001
0.092913933 -0.032945577 0.42500001
0.093654282 -0.032945577 0.42500001
0.094394632 -0.032945577 0.42500001
0.095134981 -0.032945577 0.42500001
0.09587533 -0.032945577 0.42500001
0.09661568 -0.032945577 0.42500001
0.097356029 -0.032945577 0.42500001
0.098096378 -0.032945577 0.42500001
0.098836727 -0.032945577 0.42500001
0.099577084 -0.032945577 0.42500001
0.10031743 -0.032945577 0.42500001
0.10105778 -0.032945577 0.42500001
0.10179813 -0.032945577 0.42500001
0.10253848 -0.032945577 0.42500001
0.10327883 -0.032945577 0.42500001
0.10426393 -0.033023097 0.42600003
0.10500602 -0.033023097 0.42600003
0.10599635 -0.033100616 0.42700002
0.10674018 -0.033100616 0.42700002
0.10748402 -0.033100616 0.42700002
0.10822786 -0.033100616 0.42700002
0.10897169 -0.033100616 0.42700002
0.10971552 -0.033100616 0.42700002
0.10994198 -0.032945577 0.42500001
0.07619334 -0.03470587 0.45800003
0.076991178 -0.03470587 0.45800003
0.077789016 -0.03470587 0.45800003
0.078586854 -0.03470587 0.45800003
0.078094736 -0.032508336 0.42900002
0.078658275 -0.03243256 0.42800003
0.079403847 -0.03243256 0.42800003
0.079962157 -0.03235678 0.42700002
0.080705993 -0.03235678 0.42700002
0.081259079 -0.032281004 0.42600003
0.081808679 -0.032205228 0.42500001
0.082549028 -0.032205228 0.42500001
0.083093405 -0.032129452 0.42400002
0.083832011 -0.032129452 0.42400002
0.084570624 -0.032129452 0.42400002
0.08530923 -0.032129452 0.42400002
0.086047836 -0.032129452 0.42400002
0.086786449 -0.032129452 0.42400002
0.087525055 -0.032129452 0.42400002
0.088263661 -0.032129452 0.42400002
0.089002267 -0.032129452 0.42400002
0.08974088 -0.032129452 0.42400002
0.090479486 -0.032129452 0.42400002
0.091218092 -0.032129452 0.42400002
0.091739826 -0.032053672 0.42300001
0.092695311 -0.032129452 0.42400002
0.093213558 -0.032053672 0.42300001
0.094172522 -0.032129452 0.42400002
0.094911136 -0.032129452 0.42400002
0.095649742 -0.032129452 0.42400002
0.096388347 -0.032129452 0.42400002
0.097356029 -0.032205228 0.42500001
0.098096378 -0.032205228 0.42500001
0.098836727 -0.032205228 0.42500001
0.099577084 -0.032205228 0.42500001
0.10031743 -0.032205228 0.42500001
0.10105778 -0.032205228 0.42500001
0.10179813 -0.032205228 0.42500001
0.10253848 -0.032205228 0.42500001
0.10327883 -0.032205228 0.42500001
0.10426393 -0.032281004 0.42600003
0.10500602 -0.032281004 0.42600003
0.10599635 -0.03235678 0.42700002
0.10674018 -0.03235678 0.42700002
0.10748402 -0.03235678 0.42700002
0.10822786 -0.03235678 0.42700002
0.10846128 -0.032205228 0.42500001
0.10971552 -0.03235678 0.42700002
0.078415267 -0.033833995 0.45700002
0.078658275 -0.03168698 0.42800003
0.079403847 -0.03168698 0.42800003
0.079962157 -0.031612948 0.42700002
0.080705993 -0.031612948 0.42700002
0.081259079 -0.031538911 0.42600003
0.081808679 -0.031464878 0.42500001
0.082354799 -0.031390842 0.42400002
0.083093405 -0.031390842 0.42400002
0.083832011 -0.031390842 0.42400002
0.084570624 -0.031390842 0.42400002
0.08530923 -0.031390842 0.42400002
0.086047836 -0.031390842 0.42400002
0.086786449 -0.031390842 0.42400002
0.087525055 -0.031390842 0.42400002
0.088263661 -0.031390842 0.42400002
0.088792361 -0.031316806 0.42300001
0.089529224 -0.031316806 0.42300001
0.090266094 -0.031316806 0.42300001
0.091002956 -0.031316806 0.42300001
0.091739826 -0.031316806 0.42300001
0.092476688 -0.031316806 0.42300001
0.093213558 -0.031316806 0.42300001
0.093950421 -0.031316806 0.42300001
0.09468729 -0.031316806 0.42300001
0.095649742 -0.031390842 0.42400002
0.096388347 -0.031390842 0.42400002
0.097126961 -0.031390842 0.42400002
0.098096378 -0.031464878 0.42500001
0.098836727 -0.031464878 0.42500001
0.099577084 -0.031464878 0.42500001
0.10031743 -0.031464878 0.42500001
0.10105778 -0.031464878 0.42500001
0.10179813 -0.031464878 0.42500001
0.10253848 -0.031464878 0.42500001
0.10327883 -0.031464878 0.42500001
0.10426393 -0.031538911 0.42600003
0.10500602 -0.031538911 0.42600003
0.10599635 -0.031612948 0.42700002
0.10674018 -0.031612948 0.42700002
0.10748402 -0.031612948 0.42700002
0.10822786 -0.031612948 0.42700002
0.10846128 -0.031464878 0.42500001
0.10971552 -0.031612948 0.42700002
0.10994198 -0.031464878 0.42500001
0.079962157 -0.030869113 0.42700002
0.080516987 -0.03079682 0.42600003
0.08106833 -0.030724527 0.42500001
0.081808679 -0.030724527 0.42500001
0.082354799 -0.030652234 0.42400002
0.083093405 -0.030652234 0.42400002
0.083634295 -0.030579941 0.42300001
0.084371164 -0.030579941 0.42300001
0.085108027 -0.030579941 0.42300001
0.085844897 -0.030579941 0.42300001
0.086377077 -0.030507648 0.42200002
0.087318629 -0.030579941 0.42300001
0.088055491 -0.030579941 0.42300001
0.088792361 -0.030579941 0.42300001
0.089317575 -0.030507648 0.42200002
0.090052694 -0.030507648 0.42200002
0.090787821 -0.030507648 0.42200002
0.091739826 -0.030579941 0.42300001
0.092476688 -0.030579941 0.42300001
0.093213558 -0.030579941 0.42300001
0.093950421 -0.030579941 0.42300001
0.09468729 -0.030579941 0.42300001
0.095424153 -0.030579941 0.42300001
0.096161015 -0.030579941 0.42300001
0.097126961 -0.030652234 0.42400002
0.097865567 -0.030652234 0.42400002
0.098604172 -0.030652234 0.42400002
0.099342786 -0.030652234 0.42400002
0.10031743 -0.030724527 0.42500001
0.10105778 -0.030724527 0.42500001
0.10179813 -0.030724527 0.42500001
0.10253848 -0.030724527 0.42500001
0.10327883 -0.030724527 0.42500001
0.10426393 -0.03079682 0.42600003
0.10500602 -0.03079682 0.42600003
0.10599635 -0.030869113 0.42700002
0.10674018 -0.030869113 0.42700002
0.10748402 -0.030869113 0.42700002
0.10822786 -0.030869113 0.42700002
0.10897169 -0.030869113 0.42700002
0.10971552 -0.030869113 0.42700002
0.11045936 -0.030869113 0.42700002
0.079962157 -0.030125279 0.42700002
0.080516987 -0.030054728 0.42600003
0.08106833 -0.029984176 0.42500001
0.081616186 -0.029913627 0.42400002
0.082354799 -0.029913627 0.42400002
0.082897432 -0.029843075 0.42300001
0.083634295 -0.029843075 0.42300001
0.084171705 -0.029772524 0.42200002
0.084906824 -0.029772524 0.42200002
0.08564195 -0.029772524 0.42200002
0.086172387 -0.029701972 0.42100003
0.08690577 -0.029701972 0.42100003
0.087847322 -0.029772524 0.42200002
0.088582449 -0.029772524 0.42200002
0.089105919 -0.029701972 0.42100003
0.090052694 -0.029772524 0.42200002
0.090787821 -0.029772524 0.42200002
0.091522947 -0.029772524 0.42200002
0.092258066 -0.029772524 0.42200002
0.092993192 -0.029772524 0.42200002
0.093728319 -0.029772524 0.42200002
0.094463438 -0.029772524 0.42200002
0.095424153 -0.029843075 0.42300001
0.096161015 -0.029843075 0.42300001
0.096897885 -0.029843075 0.42300001
0.097634748 -0.029843075 0.42300001
0.098604172 -0.029913627 0.42400002
0.099342786 -0.029913627 0.42400002
0.10008139 -0.029913627 0.42400002
0.10105778 -0.029984176 0.42500001
0.10179813 -0.029984176 0.42500001
0.10253848 -0.029984176 0.42500001
0.10327883 -0.029984176 0.42500001
0.10426393 -0.030054728 0.42600003
0.10500602 -0.030054728 0.42600003
0.10599635 -0.030125279 0.42700002
0.10674018 -0.030125279 0.42700002
0.10748402 -0.030125279 0.42700002
0.10822786 -0.030125279 0.42700002
0.10897169 -0.030125279 0.42700002
0.10971552 -0.030125279 0.42700002
0.11045936 -0.030125279 0.42700002
0.079962157 -0.029381445 0.42700002
0.080516987 -0.029312637 0.42600003
0.08106833 -0.029243827 0.42500001
0.081616186 -0.029175017 0.42400002
0.082354799 -0.029175017 0.42400002
0.082897432 -0.029106209 0.42300001
0.083436579 -0.029037399 0.42200002
0.084171705 -0.029037399 0.42200002
0.084906824 -0.029037399 0.42200002
0.085439011 -0.028968591 0.42100003
0.086172387 -0.028968591 0.42100003
0.08690577 -0.028968591 0.42100003
0.087639153 -0.028968591 0.42100003
0.088372536 -0.028968591 0.42100003
0.089105919 -0.028968591 0.42100003
0.089839302 -0.028968591 0.42100003
0.090787821 -0.029037399 0.42200002
0.091522947 -0.029037399 0.42200002
0.092258066 -0.029037399 0.42200002
0.092993192 -0.029037399 0.42200002
0.093728319 -0.029037399 0.42200002
0.094463438 -0.029037399 0.42200002
0.095424153 -0.029106209 0.42300001
0.096161015 -0.029106209 0.42300001
0.096897885 -0.029106209 0.42300001
0.097634748 -0.029106209 0.42300001
0.098604172 -0.029175017 0.42400002
0.099342786 -0.029175017 0.42400002
0.10008139 -0.029175017 0.42400002
0.10105778 -0.029243827 0.42500001
0.10179813 -0.029243827 0.42500001
0.10253848 -0.029243827 0.42500001
0.10327883 -0.029243827 0.42500001
0.10426393 -0.029312637 0.42600003
0.10500602 -0.029312637 0.42600003
0.10599635 -0.029381445 0.42700002
0.10674018 -0.029381445 0.42700002
0.10748402 -0.029381445 0.42700002
0.10822786 -0.029381445 0.42700002
0.10922689 -0.029450255 0.42800003
0.10997247 -0.029450255 0.42800003
0.10994198 -0.029243827 0.42500001
0.11068233 -0.029243827 0.42500001
0.080516987 -0.028570544 0.42600003
0.08106833 -0.028503478 0.42500001
0.081616186 -0.028436409 0.42400002
0.082160562 -0.028369343 0.42300001
0.082701452 -0.028302277 0.42200002
0.083436579 -0.028302277 0.42200002
0.083972245 -0.028235208 0.42100003
0.084705628 -0.028235208 0.42100003
0.085439011 -0.028235208 0.42100003
0.086172387 -0.028235208 0.42100003
0.086699344 -0.028168142 0.42000002
0.087430984 -0.028168142 0.42000002
0.088162623 -0.028168142 0.42000002
0.088894263 -0.028168142 0.42000002
0.089839302 -0.028235208 0.42100003
0.090572685 -0.028235208 0.42100003
0.091522947 -0.028302277 0.42200002
0.092258066 -0.028302277 0.42200002
0.092993192 -0.028302277 0.42200002
0.093728319 -0.028302277 0.42200002
0.094463438 -0.028302277 0.42200002
0.095424153 -0.028369343 0.42300001
0.096161015 -0.028369343 0.42300001
0.096897885 -0.028369343 0.42300001
0.097865567 -0.028436409 0.42400002
0.098604172 -0.028436409 0.42400002
0.099342786 -0.028436409 0.42400002
0.10031743 -0.028503478 0.42500001
0.10105778 -0.028503478 0.42500001
0.10179813 -0.028503478 0.42500001
0.10253848 -0.028503478 0.42500001
0.10327883 -0.028503478 0.42500001
0.10426393 -0.028570544 0.42600003
0.10525252 -0.02863761 0.42700002
0.10599635 -0.02863761 0.42700002
0.10674018 -0.02863761 0.42700002
0.10748402 -0.02863761 0.42700002
0.10772093 -0.028503478 0.42500001
0.10922689 -0.028704679 0.42800003
0.10997247 -0.028704679 0.42800003
0.1096833 -0.028436409 0.42400002
0.1104219 -0.028436409 0.42400002
0.079589374 -0.028024428 0.42900002
0.08033669 -0.028024428 0.42900002
0.080705993 -0.027893776 0.42700002
0.081449829 -0.027893776 0.42700002
0.0814237 -0.027632477 0.42300001
0.082160562 -0.027632477 0.42300001
0.082701452 -0.027567152 0.42200002
0.083238862 -0.027501827 0.42100003
0.083972245 -0.027501827 0.42100003
0.084705628 -0.027501827 0.42100003
0.085236065 -0.027436502 0.42000002
0.085967705 -0.027436502 0.42000002
0.086699344 -0.027436502 0.42000002
0.087430984 -0.027436502 0.42000002
0.088162623 -0.027436502 0.42000002
0.088894263 -0.027436502 0.42000002
0.089625902 -0.027436502 0.42000002
0.090572685 -0.027501827 0.42100003
0.091306068 -0.027501827 0.42100003
0.092039444 -0.027501827 0.42100003
0.092993192 -0.027567152 0.42200002
0.093728319 -0.027567152 0.42200002
0.094463438 -0.027567152 0.42200002
0.095198564 -0.027567152 0.42200002
0.096161015 -0.027632477 0.42300001
0.096897885 -0.027632477 0.42300001
0.097865567 -0.027697802 0.42400002
0.098604172 -0.027697802 0.42400002
0.099342786 -0.027697802 0.42400002
0.10031743 -0.027763126 0.42500001
0.10129556 -0.027828451 0.42600003
0.10203765 -0.027828451 0.42600003
0.10302102 -0.027893776 0.42700002
0.10376485 -0.027893776 0.42700002
0.10450868 -0.027893776 0.42700002
0.10525252 -0.027893776 0.42700002
0.10624459 -0.027959101 0.42800003
0.10699017 -0.027959101 0.42800003
0.10773574 -0.027959101 0.42800003
0.10772093 -0.027763126 0.42500001
0.10948209 -0.028024428 0.42900002
0.11022941 -0.028024428 0.42900002
0.079774894 -0.027340692 0.43000001
0.08033669 -0.027277108 0.42900002
0.080705993 -0.027149942 0.42700002
0.081449829 -0.027149942 0.42700002
0.081231207 -0.026832027 0.42200002
0.081966333 -0.026832027 0.42200002
0.082505479 -0.026768444 0.42100003
0.083238862 -0.026768444 0.42100003
0.083972245 -0.026768444 0.42100003
0.084504426 -0.026704861 0.42000002
0.085236065 -0.026704861 0.42000002
0.085967705 -0.026704861 0.42000002
0.086492918 -0.026641279 0.41900003
0.087222815 -0.026641279 0.41900003
0.088162623 -0.026704861 0.42000002
0.088894263 -0.026704861 0.42000002
0.089625902 -0.026704861 0.42000002
0.090572685 -0.026768444 0.42100003
0.091306068 -0.026768444 0.42100003
0.092039444 -0.026768444 0.42100003
0.092993192 -0.026832027 0.42200002
0.093728319 -0.026832027 0.42200002
0.094463438 -0.026832027 0.42200002
0.095424153 -0.026895611 0.42300001
0.096388347 -0.026959194 0.42400002
0.097126961 -0.026959194 0.42400002
0.098096378 -0.027022777 0.42500001
0.098836727 -0.027022777 0.42500001
0.099577084 -0.027022777 0.42500001
0.10055348 -0.02708636 0.42600003
0.10153335 -0.027149942 0.42700002
0.10227718 -0.027149942 0.42700002
0.10302102 -0.027149942 0.42700002
0.10376485 -0.027149942 0.42700002
0.10450868 -0.027149942 0.42700002
0.10525252 -0.027149942 0.42700002
0.10649282 -0.027277108 0.42900002
0.10724014 -0.027277108 0.42900002
0.079589374 -0.026529791 0.42900002
0.08033669 -0.026529791 0.42900002
0.080894999 -0.026467949 0.42800003
0.081640579 -0.026467949 0.42800003
0.082193665 -0.026406109 0.42700002
0.081966333 -0.026096903 0.42200002
0.082505479 -0.026035063 0.42100003
0.083238862 -0.026035063 0.42100003
0.083772786 -0.025973221 0.42000002
0.084504426 -0.025973221 0.42000002
0.085236065 -0.025973221 0.42000002
0.085967705 -0.025973221 0.42000002
0.086699344 -0.025973221 0.42000002
0.087430984 -0.025973221 0.42000002
0.088162623 -0.025973221 0.42000002
0.088894263 -0.025973221 0.42000002
0.089625902 -0.025973221 0.42000002
0.090572685 -0.026035063 0.42100003
0.091306068 -0.026035063 0.42100003
0.092039444 -0.026035063 0.42100003
0.092993192 -0.026096903 0.42200002
0.093728319 -0.026096903 0.42200002
0.09468729 -0.026158744 0.42300001
0.095649742 -0.026220586 0.42400002
0.096388347 -0.026220586 0.42400002
0.097356029 -0.026282426 0.42500001
0.098096378 -0.026282426 0.42500001
0.098836727 -0.026282426 0.42500001
0.099811383 -0.026344268 0.42600003
0.10078951 -0.026406109 0.42700002
0.10153335 -0.026406109 0.42700002
0.10227718 -0.026406109 0.42700002
0.10326228 -0.026467949 0.42800003
0.10400786 -0.026467949 0.42800003
0.10475343 -0.026467949 0.42800003
0.10549901 -0.026467949 0.42800003
0.10649282 -0.026529791 0.42900002
0.10724014 -0.026529791 0.42900002
0.079774894 -0.025842572 0.43000001
0.08033669 -0.025782473 0.42900002
0.080894999 -0.025722373 0.42800003
0.081640579 -0.025722373 0.42800003
0.082193665 -0.025662275 0.42700002
0.082160562 -0.025421878 0.42300001
0.082505479 -0.02530168 0.42100003
0.083238862 -0.02530168 0.42100003
0.083772786 -0.025241582 0.42000002
0.084504426 -0.025241582 0.42000002
0.085236065 -0.025241582 0.42000002
0.085967705 -0.025241582 0.42000002
0.086699344 -0.025241582 0.42000002
0.087430984 -0.025241582 0.42000002
0.088162623 -0.025241582 0.42000002
0.088894263 -0.025241582 0.42000002
0.089625902 -0.025241582 0.42000002
0.090572685 -0.02530168 0.42100003
0.091306068 -0.02530168 0.42100003
0.092258066 -0.02536178 0.42200002
0.092993192 -0.02536178 0.42200002
0.093950421 -0.025421878 0.42300001
0.094911136 -0.025481978 0.42400002
0.095649742 -0.025481978 0.42400002
0.09661568 -0.025542077 0.42500001
0.097356029 -0.025542077 0.42500001
0.098096378 -0.025542077 0.42500001
0.098836727 -0.025542077 0.42500001
0.10004568 -0.025662275 0.42700002
0.10078951 -0.025662275 0.42700002
0.10177113 -0.025722373 0.42800003
0.1025167 -0.025722373 0.42800003
0.10326228 -0.025722373 0.42800003
0.10425087 -0.025782473 0.42900002
0.10499819 -0.025782473 0.42900002
0.1057455 -0.025782473 0.42900002
0.079774894 -0.025093511 0.43000001
0.08033669 -0.025035154 0.42900002
0.080894999 -0.024976797 0.42800003
0.081640579 -0.024976797 0.42800003
0.082193665 -0.024918441 0.42700002
0.082160562 -0.024685012 0.42300001
0.082505479 -0.024568299 0.42100003
