# .PCD v0.7 - Point Cloud Data file format
VERSION 0.7
FIELDS x y z
SIZE 4 4 4
TYPE F F F
COUNT 1 1 1
WIDTH 1336
HEIGHT 1
VIEWPOINT 0 0 0 1 0 0 0
POINTS 1336
DATA ascii
0.016211053 -0.044494167 0.39600003
0.016900886 -0.044494167 0.39600003
0.017635139 -0.044606525 0.39700001
0.018326713 -0.044606525 0.39700001
0.019018287 -0.044606525 0.39700001
0.019759508 -0.044718884 0.39800003
0.020452823 -0.044718884 0.39800003
0.021199271 -0.044831242 0.39900002
0.021949202 -0.044943605 0.40000001
0.022646001 -0.044943605 0.40000001
0.023401158 -0.045055963 0.40100002
0.0241598 -0.045168322 0.40200001
0.024983766 -0.045393039 0.40400001
0.025687534 -0.045393039 0.40400001
0.026391301 -0.045393039 0.40400001
0.02709507 -0.045393039 0.40400001
0.027936455 -0.045617756 0.40600002
0.028714258 -0.045730118 0.40700001
0.029423254 -0.045730118 0.40700001
0.030206282 -0.045842476 0.40800002
0.030992795 -0.045954835 0.40900001
0.031705271 -0.045954835 0.40900001
0.032338489 -0.045842476 0.40800002
0.054238915 -0.050336834 0.44800001
0.05501933 -0.050336834 0.44800001
0.055799749 -0.050336834 0.44800001
0.056453869 -0.050224476 0.44700003
0.057104506 -0.050112117 0.44600001
0.057751659 -0.049999759 0.44500002
0.058395326 -0.0498874 0.44400004
0.059168775 -0.0498874 0.44400004
0.059807219 -0.049775042 0.44300002
0.060442179 -0.049662679 0.44200003
0.061212141 -0.049662679 0.44200003
0.061841875 -0.049550321 0.44100001
0.062468123 -0.049437962 0.44000003
0.063234605 -0.049437962 0.44000003
0.064001083 -0.049437962 0.44000003
0.064620368 -0.049325604 0.43900001
0.065385103 -0.049325604 0.43900001
0.066149838 -0.049325604 0.43900001
0.066762157 -0.049213246 0.43800002
0.067525148 -0.049213246 0.43800002
0.068288147 -0.049213246 0.43800002
0.069051139 -0.049213246 0.43800002
0.069814138 -0.049213246 0.43800002
0.070738271 -0.049325604 0.43900001
0.071503006 -0.049325604 0.43900001
0.072267748 -0.049325604 0.43900001
0.073032483 -0.049325604 0.43900001
0.073797219 -0.049325604 0.43900001
0.074561961 -0.049325604 0.43900001
0.075498283 -0.049437962 0.44000003
0.076264761 -0.049437962 0.44000003
0.077031247 -0.049437962 0.44000003
0.077974536 -0.049550321 0.44100001
0.078742757 -0.049550321 0.44100001
0.079510979 -0.049550321 0.44100001
0.080461241 -0.049662679 0.44200003
0.081231207 -0.049662679 0.44200003
0.082001172 -0.049662679 0.44200003
0.14439787 -0.047640219 0.42400002
0.14513648 -0.047640219 0.42400002
0.1458751 -0.047640219 0.42400002
0.14626791 -0.047527861 0.42300001
0.14665724 -0.047415502 0.42200002
0.14739238 -0.047415502 0.42200002
0.1481275 -0.047415502 0.42200002
0.14886262 -0.047415502 0.42200002
0.14924325 -0.04730314 0.42100003
0.14997663 -0.04730314 0.42100003
0.15106799 -0.047415502 0.42200002
0.15180312 -0.047415502 0.42200002
0.1528997 -0.047527861 0.42300001
0.15363657 -0.047527861 0.42300001
0.15437344 -0.047527861 0.42300001
0.1551103 -0.047527861 0.42300001
0.15584716 -0.047527861 0.42300001
0.15695421 -0.047640219 0.42400002
0.15769282 -0.047640219 0.42400002
0.15917875 -0.047864936 0.42600003
0.16029623 -0.047977295 0.42700002
0.16104007 -0.047977295 0.42700002
0.1617839 -0.047977295 0.42700002
0.16252774 -0.047977295 0.42700002
0.16327158 -0.047977295 0.42700002
0.16439952 -0.048089653 0.42800003
0.1651451 -0.048089653 0.42800003
0.16627826 -0.048202015 0.42900002
0.16702558 -0.048202015 0.42900002
0.1677729 -0.048202015 0.42900002
0.16891304 -0.048314374 0.43000001
0.17005667 -0.048426732 0.43100002
0.17080747 -0.048426732 0.43100002
0.17155826 -0.048426732 0.43100002
0.17230907 -0.048426732 0.43100002
0.17305987 -0.048426732 0.43100002
0.17381068 -0.048426732 0.43100002
0.17456147 -0.048426732 0.43100002
-0.0075724744 -0.045795441 0.41400003
-0.0068512866 -0.045795441 0.41400003
-0.0061004842 -0.045574207 0.41200003
-0.0053827805 -0.045574207 0.41200003
-0.0046537532 -0.045463588 0.41100001
-0.0039282101 -0.045352973 0.41000003
-0.0032061513 -0.045242354 0.40900001
-0.0024875761 -0.045131739 0.40800002
-0.0017768401 -0.045131739 0.40800002
-0.001066104 -0.045131739 0.40800002
-0.00035362603 -0.044910505 0.40600002
0.00035362603 -0.044910505 0.40600002
0.0010478131 -0.044357419 0.40100002
0.0017463551 -0.044357419 0.40100002
0.0024388002 -0.044246804 0.40000001
0.0031277612 -0.044136185 0.39900002
0.0038132383 -0.04402557 0.39800003
0.0044952314 -0.043914951 0.39700001
0.0051868055 -0.043914951 0.39700001
0.0058783796 -0.043914951 0.39700001
0.0065699536 -0.043914951 0.39700001
0.0072249454 -0.043693718 0.39500001
0.0078930026 -0.043583103 0.39400002
0.0085793501 -0.043583103 0.39400002
0.0092656985 -0.043583103 0.39400002
0.0099267876 -0.043472484 0.39300001
0.010611393 -0.043472484 0.39300001
0.011324743 -0.043583103 0.39400002
0.01201109 -0.043583103 0.39400002
0.012697439 -0.043583103 0.39400002
0.013383787 -0.043583103 0.39400002
0.014105846 -0.043693718 0.39500001
0.014793936 -0.043693718 0.39500001
0.015521221 -0.043804336 0.39600003
0.016211053 -0.043804336 0.39600003
0.016900886 -0.043804336 0.39600003
0.017635139 -0.043914951 0.39700001
0.018326713 -0.043914951 0.39700001
0.01906619 -0.04402557 0.39800003
0.019809155 -0.044136185 0.39900002
0.020504212 -0.044136185 0.39900002
0.021252401 -0.044246804 0.40000001
0.021949202 -0.044246804 0.40000001
0.022702616 -0.044357419 0.40100002
0.023459515 -0.044468038 0.40200001
0.024219899 -0.044578653 0.40300003
0.024983766 -0.044689272 0.40400001
0.025751116 -0.044799887 0.40500003
0.026456626 -0.044799887 0.40500003
0.027162137 -0.044799887 0.40500003
0.027936455 -0.044910505 0.40600002
0.028714258 -0.04502112 0.40700001
0.029495547 -0.045131739 0.40800002
0.030280316 -0.045242354 0.40900001
0.030992795 -0.045242354 0.40900001
0.031705271 -0.045242354 0.40900001
0.032417752 -0.045242354 0.40900001
0.054359984 -0.049667034 0.44900003
0.05501933 -0.049556419 0.44800001
0.055799749 -0.049556419 0.44800001
0.056580164 -0.049556419 0.44800001
0.057104506 -0.049335185 0.44600001
0.057751659 -0.049224567 0.44500002
0.058395326 -0.049113952 0.44400004
0.059168775 -0.049113952 0.44400004
0.059807219 -0.049003333 0.44300002
0.060442179 -0.048892718 0.44200003
0.061212141 -0.048892718 0.44200003
0.061841875 -0.048782099 0.44100001
0.062610097 -0.048782099 0.44100001
0.063234605 -0.048671484 0.44000003
0.064001083 -0.048671484 0.44000003
0.064767562 -0.048671484 0.44000003
0.065385103 -0.048560865 0.43900001
0.066149838 -0.048560865 0.43900001
0.066914581 -0.048560865 0.43900001
0.067679316 -0.048560865 0.43900001
0.068444058 -0.048560865 0.43900001
0.069208793 -0.048560865 0.43900001
0.069973528 -0.048560865 0.43900001
0.070899405 -0.048671484 0.44000003
0.071665883 -0.048671484 0.44000003
0.072432362 -0.048671484 0.44000003
0.073198847 -0.048671484 0.44000003
0.073965326 -0.048671484 0.44000003
0.074731804 -0.048671484 0.44000003
0.075498283 -0.048671484 0.44000003
0.076438092 -0.048782099 0.44100001
0.077206314 -0.048782099 0.44100001
0.077974536 -0.048782099 0.44100001
0.078921318 -0.048892718 0.44200003
0.079691276 -0.048892718 0.44200003
0.080461241 -0.048892718 0.44200003
0.081231207 -0.048892718 0.44200003
0.082001172 -0.048892718 0.44200003
0.14473844 -0.047012229 0.42500001
0.14547879 -0.047012229 0.42500001
0.1458751 -0.04690161 0.42400002
0.1466137 -0.04690161 0.42400002
0.14700478 -0.046790995 0.42300001
0.14774165 -0.046790995 0.42300001
0.14847851 -0.046790995 0.42300001
0.14921537 -0.046790995 0.42300001
0.14959775 -0.046680376 0.42200002
0.15033287 -0.046680376 0.42200002
0.15142597 -0.046790995 0.42300001
0.15216284 -0.046790995 0.42300001
0.1528997 -0.046790995 0.42300001
0.15363657 -0.046790995 0.42300001
0.15473838 -0.04690161 0.42400002
0.15547699 -0.04690161 0.42400002
0.15621561 -0.04690161 0.42400002
0.15732439 -0.047012229 0.42500001
0.15806474 -0.047012229 0.42500001
0.15992606 -0.047344077 0.42800003
0.16067164 -0.047344077 0.42800003
0.16104007 -0.047233462 0.42700002
0.1621628 -0.047344077 0.42800003
0.16290836 -0.047344077 0.42800003
0.16365394 -0.047344077 0.42800003
0.16439952 -0.047344077 0.42800003
0.16553095 -0.047454696 0.42900002
0.16666587 -0.047565311 0.43000001
0.16741492 -0.047565311 0.43000001
0.16855507 -0.04767593 0.43100002
0.16930586 -0.04767593 0.43100002
0.17005667 -0.04767593 0.43100002
0.17080747 -0.04767593 0.43100002
0.17195632 -0.047786549 0.43200001
0.17270885 -0.047786549 0.43200001
0.17346141 -0.047786549 0.43200001
0.17421395 -0.047786549 0.43200001
0.17496648 -0.047786549 0.43200001
-0.0075907656 -0.04518313 0.41500002
-0.0068512866 -0.045074254 0.41400003
-0.0061300984 -0.045074254 0.41400003
-0.0053827805 -0.044856504 0.41200003
-0.0046537532 -0.044747628 0.41100001
-0.0039282101 -0.044638753 0.41000003
-0.0032139902 -0.044638753 0.41000003
-0.0024936732 -0.044529878 0.40900001
-0.0017768401 -0.044421002 0.40800002
-0.0010634911 -0.044312127 0.40700001
-0.00035449702 -0.044312127 0.40700001
0.00035449702 -0.044312127 0.40700001
0.0010582651 -0.044094376 0.40500003
0.0017637751 -0.044094376 0.40500003
0.0024266061 -0.043332253 0.39800003
0.0031199222 -0.043332253 0.39800003
0.0038132383 -0.043332253 0.39800003
0.0045065545 -0.043332253 0.39800003
0.0051868055 -0.043223377 0.39700001
0.0058635725 -0.043114502 0.39600003
0.0065534045 -0.043114502 0.39600003
0.0072066546 -0.042896751 0.39400002
0.0078930026 -0.042896751 0.39400002
0.0085793501 -0.042896751 0.39400002
0.0092656985 -0.042896751 0.39400002
0.0099267876 -0.042787876 0.39300001
0.010611393 -0.042787876 0.39300001
0.011295999 -0.042787876 0.39300001
0.01201109 -0.042896751 0.39400002
0.012697439 -0.042896751 0.39400002
0.013417756 -0.043005627 0.39500001
0.014105846 -0.043005627 0.39500001
0.014831389 -0.043114502 0.39600003
0.015521221 -0.043114502 0.39600003
0.016251991 -0.043223377 0.39700001
0.016900886 -0.043114502 0.39600003
0.017635139 -0.043223377 0.39700001
0.018372875 -0.043332253 0.39800003
0.019114096 -0.043441128 0.39900002
0.019809155 -0.043441128 0.39900002
0.020504212 -0.043441128 0.39900002
0.021252401 -0.043550003 0.40000001
0.022004073 -0.043658879 0.40100002
0.022759231 -0.043767754 0.40200001
0.023517873 -0.043876629 0.40300003
0.024279997 -0.043985501 0.40400001
0.024983766 -0.043985501 0.40400001
0.025751116 -0.044094376 0.40500003
0.026456626 -0.044094376 0.40500003
0.027229203 -0.044203252 0.40600002
0.028005265 -0.044312127 0.40700001
0.02878481 -0.044421002 0.40800002
0.029640133 -0.044638753 0.41000003
0.030354353 -0.044638753 0.41000003
0.031068573 -0.044638753 0.41000003
0.031782791 -0.044638753 0.41000003
0.032497011 -0.044638753 0.41000003
0.054359984 -0.04888488 0.44900003
0.055142142 -0.04888488 0.44900003
0.055799749 -0.048776004 0.44800001
0.056580164 -0.048776004 0.44800001
0.057232544 -0.048667129 0.44700003
0.057881437 -0.048558254 0.44600001
0.058526848 -0.048449378 0.44500002
0.059168775 -0.048340503 0.44400004
0.059942223 -0.048340503 0.44400004
0.060578924 -0.048231628 0.44300002
0.061212141 -0.048122752 0.44200003
0.061982106 -0.048122752 0.44200003
0.062610097 -0.048013877 0.44100001
0.063378319 -0.048013877 0.44100001
0.064001083 -0.047905002 0.44000003
0.064767562 -0.047905002 0.44000003
0.065534048 -0.047905002 0.44000003
0.066300526 -0.047905002 0.44000003
0.067067005 -0.047905002 0.44000003
0.067833483 -0.047905002 0.44000003
0.068599962 -0.047905002 0.44000003
0.069366448 -0.047905002 0.44000003
0.070132926 -0.047905002 0.44000003
0.070899405 -0.047905002 0.44000003
0.071665883 -0.047905002 0.44000003
0.072432362 -0.047905002 0.44000003
0.073198847 -0.047905002 0.44000003
0.074133426 -0.048013877 0.44100001
0.074901648 -0.048013877 0.44100001
0.07566987 -0.048013877 0.44100001
0.076438092 -0.048013877 0.44100001
0.077381387 -0.048122752 0.44200003
0.078151353 -0.048122752 0.44200003
0.078921318 -0.048122752 0.44200003
0.079691276 -0.048122752 0.44200003
0.080461241 -0.048122752 0.44200003
0.081231207 -0.048122752 0.44200003
0.14473844 -0.046271879 0.42500001
0.14547879 -0.046271879 0.42500001
0.14621913 -0.046271879 0.42500001
0.1466137 -0.046163004 0.42400002
0.14735231 -0.046163004 0.42400002
0.14809091 -0.046163004 0.42400002
0.14847851 -0.046054129 0.42300001
0.14921537 -0.046054129 0.42300001
0.14995225 -0.046054129 0.42300001
0.15068911 -0.046054129 0.42300001
0.15178396 -0.046163004 0.42400002
0.15252256 -0.046163004 0.42400002
0.15326117 -0.046163004 0.42400002
0.15399978 -0.046163004 0.42400002
0.15510334 -0.046271879 0.42500001
0.15584369 -0.046271879 0.42500001
0.15658404 -0.046271879 0.42500001
0.15806474 -0.046489626 0.42700002
0.15918049 -0.046598502 0.42800003
0.15992606 -0.046598502 0.42800003
0.16067164 -0.046598502 0.42800003
0.16141722 -0.046598502 0.42800003
0.1621628 -0.046598502 0.42800003
0.163289 -0.046707377 0.42900002
0.16403632 -0.046707377 0.42900002
0.16478363 -0.046707377 0.42900002
0.1659168 -0.046816252 0.43000001
0.16666587 -0.046816252 0.43000001
0.16780426 -0.046925128 0.43100002
0.16855507 -0.046925128 0.43100002
0.16930586 -0.046925128 0.43100002
0.17045122 -0.047034003 0.43200001
0.17120378 -0.047034003 0.43200001
0.17195632 -0.047034003 0.43200001
0.17270885 -0.047034003 0.43200001
0.17346141 -0.047034003 0.43200001
0.17421395 -0.047034003 0.43200001
0.17496648 -0.047034003 0.43200001
-0.0075907656 -0.044460196 0.41500002
-0.0068512866 -0.044353064 0.41400003
-0.0061300984 -0.044353064 0.41400003
-0.0053827805 -0.0441388 0.41200003
-0.0046650763 -0.0441388 0.41200003
-0.0039473721 -0.0441388 0.41200003
-0.0032218292 -0.044031665 0.41100001
-0.002505867 -0.044031665 0.41100001
-0.0017811951 -0.043817401 0.40900001
-0.001066104 -0.043710265 0.40800002
-0.00035362603 -0.043496002 0.40600002
0.00035362603 -0.043496002 0.40600002
0.0010582651 -0.043388866 0.40500003
0.0017637751 -0.043388866 0.40500003
0.0024631883 -0.043281734 0.40400001
0.0031669561 -0.043281734 0.40400001
0.0038324003 -0.042853203 0.40000001
0.0044952314 -0.042531803 0.39700001
0.0051868055 -0.042531803 0.39700001
0.0058783796 -0.042531803 0.39700001
0.0065699536 -0.042531803 0.39700001
0.0072249454 -0.042317539 0.39500001
0.0079130353 -0.042317539 0.39500001
0.0085793501 -0.042210404 0.39400002
0.0092656985 -0.042210404 0.39400002
0.0099267876 -0.042103272 0.39300001
0.010611393 -0.042103272 0.39300001
0.011295999 -0.042103272 0.39300001
0.01201109 -0.042210404 0.39400002
0.012697439 -0.042210404 0.39400002
0.013417756 -0.042317539 0.39500001
0.014105846 -0.042317539 0.39500001
0.014831389 -0.042424671 0.39600003
0.015521221 -0.042424671 0.39600003
0.016251991 -0.042531803 0.39700001
0.016943565 -0.042531803 0.39700001
0.017679559 -0.042638935 0.39800003
0.018372875 -0.042638935 0.39800003
0.019114096 -0.042746071 0.39900002
0.019809155 -0.042746071 0.39900002
0.020555601 -0.042853203 0.40000001
0.021252401 -0.042853203 0.40000001
0.022004073 -0.042960335 0.40100002
0.022759231 -0.04306747 0.40200001
0.02357623 -0.043281734 0.40400001
0.024279997 -0.043281734 0.40400001
0.024983766 -0.043281734 0.40400001
0.025814699 -0.043496002 0.40600002
0.026521951 -0.043496002 0.40600002
0.027296271 -0.043603133 0.40700001
0.028005265 -0.043603133 0.40700001
0.028855361 -0.043817401 0.40900001
0.029640133 -0.043924533 0.41000003
0.030354353 -0.043924533 0.41000003
0.031068573 -0.043924533 0.41000003
0.031782791 -0.043924533 0.41000003
0.032497011 -0.043924533 0.41000003
0.054359984 -0.048102722 0.44900003
0.055142142 -0.048102722 0.44900003
0.055799749 -0.047995586 0.44800001
0.056580164 -0.047995586 0.44800001
0.057232544 -0.047888454 0.44700003
0.057881437 -0.047781322 0.44600001
0.058526848 -0.047674187 0.44500002
0.059302039 -0.047674187 0.44500002
0.059942223 -0.047567055 0.44400004
0.060578924 -0.047459923 0.44300002
0.061350632 -0.047459923 0.44300002
0.061982106 -0.047352787 0.44200003
0.062752068 -0.047352787 0.44200003
0.063378319 -0.047245655 0.44100001
0.064146541 -0.047245655 0.44100001
0.064914763 -0.047245655 0.44100001
0.065534048 -0.047138523 0.44000003
0.066300526 -0.047138523 0.44000003
0.067067005 -0.047138523 0.44000003
0.067833483 -0.047138523 0.44000003
0.068599962 -0.047138523 0.44000003
0.069366448 -0.047138523 0.44000003
0.070132926 -0.047138523 0.44000003
0.070899405 -0.047138523 0.44000003
0.07182876 -0.047245655 0.44100001
0.072596982 -0.047245655 0.44100001
0.073365204 -0.047245655 0.44100001
0.074133426 -0.047245655 0.44100001
0.074901648 -0.047245655 0.44100001
0.07566987 -0.047245655 0.44100001
0.076438092 -0.047245655 0.44100001
0.077381387 -0.047352787 0.44200003
0.078151353 -0.047352787 0.44200003
0.078921318 -0.047352787 0.44200003
0.079871573 -0.047459923 0.44300002
0.080643281 -0.047459923 0.44300002
0.08141499 -0.047459923 0.44300002
0.14467572 -0.045745794 0.42700002
0.145079 -0.045638662 0.42600003
0.14547879 -0.045531526 0.42500001
0.14621913 -0.045531526 0.42500001
0.1466137 -0.045424394 0.42400002
0.14735231 -0.045424394 0.42400002
0.14809091 -0.045424394 0.42400002
0.14847851 -0.045317262 0.42300001
0.14921537 -0.045317262 0.42300001
0.14995225 -0.045317262 0.42300001
0.15068911 -0.045317262 0.42300001
0.15178396 -0.045424394 0.42400002
0.15252256 -0.045424394 0.42400002
0.15326117 -0.045424394 0.42400002
0.15436299 -0.045531526 0.42500001
0.15510334 -0.045531526 0.42500001
0.15584369 -0.045531526 0.42500001
0.15695247 -0.045638662 0.42600003
0.15806474 -0.045745794 0.42700002
0.15918049 -0.045852926 0.42800003
0.16029972 -0.045960061 0.42900002
0.16104704 -0.045960061 0.42900002
0.16179436 -0.045960061 0.42900002
0.16254167 -0.045960061 0.42900002
0.163289 -0.045960061 0.42900002
0.16441868 -0.046067193 0.43000001
0.16516773 -0.046067193 0.43000001
0.1659168 -0.046067193 0.43000001
0.16705346 -0.046174325 0.43100002
0.16780426 -0.046174325 0.43100002
0.16855507 -0.046174325 0.43100002
0.16969869 -0.046281461 0.43200001
0.17045122 -0.046281461 0.43200001
0.17120378 -0.046281461 0.43200001
0.17195632 -0.046281461 0.43200001
0.17310865 -0.046388593 0.43300003
0.17386293 -0.046388593 0.43300003
0.17461722 -0.046388593 0.43300003
0.17496648 -0.046281461 0.43200001
-0.0075907656 -0.043737266 0.41500002
-0.0068512866 -0.043631878 0.41400003
-0.0061300984 -0.043631878 0.41400003
-0.0054089106 -0.043631878 0.41400003
-0.0046650763 -0.043421093 0.41200003
-0.0039473721 -0.043421093 0.41200003
-0.0032296681 -0.043421093 0.41200003
-0.002505867 -0.043315705 0.41100001
-0.0017811951 -0.043104921 0.40900001
-0.001066104 -0.042999532 0.40800002
-0.00035362603 -0.042788748 0.40600002
0.00035362603 -0.042788748 0.40600002
0.0010582651 -0.042683359 0.40500003
0.0017637751 -0.042683359 0.40500003
0.0024631883 -0.042577967 0.40400001
0.0031669561 -0.042577967 0.40400001
0.0038324003 -0.042156402 0.40000001
0.0045292005 -0.042156402 0.40000001
0.0051998701 -0.041945621 0.39800003
0.0058931862 -0.041945621 0.39800003
0.0065534045 -0.041734837 0.39600003
0.0072249454 -0.041629449 0.39500001
0.0079130353 -0.041629449 0.39500001
0.0085793501 -0.041524056 0.39400002
0.0092656985 -0.041524056 0.39400002
0.0099520469 -0.041524056 0.39400002
0.010611393 -0.041418664 0.39300001
0.011324743 -0.041524056 0.39400002
0.01201109 -0.041524056 0.39400002
0.012729666 -0.041629449 0.39500001
0.013417756 -0.041629449 0.39500001
0.014141557 -0.041734837 0.39600003
0.014831389 -0.041734837 0.39600003
0.015560416 -0.041840229 0.39700001
0.016251991 -0.041840229 0.39700001
0.016943565 -0.041840229 0.39700001
0.017679559 -0.041945621 0.39800003
0.018419039 -0.04205101 0.39900002
0.019114096 -0.04205101 0.39900002
0.019858802 -0.042156402 0.40000001
0.020606991 -0.042261794 0.40100002
0.021305533 -0.042261794 0.40100002
0.022004073 -0.042261794 0.40100002
0.022815846 -0.042472575 0.40300003
0.023634586 -0.042683359 0.40500003
0.024340097 -0.042683359 0.40500003
0.025107447 -0.042788748 0.40600002
0.025878282 -0.04289414 0.40700001
0.026587276 -0.04289414 0.40700001
0.027363338 -0.042999532 0.40800002
0.028074075 -0.042999532 0.40800002
0.028855361 -0.043104921 0.40900001
0.029640133 -0.043210313 0.41000003
0.030354353 -0.043210313 0.41000003
0.031068573 -0.043210313 0.41000003
0.031782791 -0.043210313 0.41000003
0.032497011 -0.043210313 0.41000003
0.033211231 -0.043210313 0.41000003
0.055142142 -0.047320563 0.44900003
0.0559243 -0.047320563 0.44900003
0.056580164 -0.047215171 0.44800001
0.057104506 -0.047004391 0.44600001
0.057881437 -0.047004391 0.44600001
0.058526848 -0.046898998 0.44500002
0.059302039 -0.046898998 0.44500002
0.060077228 -0.046898998 0.44500002
0.060715672 -0.046793606 0.44400004
0.06148912 -0.046793606 0.44400004
0.062122338 -0.046688218 0.44300002
0.062752068 -0.046582825 0.44200003
0.063522033 -0.046582825 0.44200003
0.064146541 -0.046477433 0.44100001
0.064914763 -0.046477433 0.44100001
0.065682985 -0.046477433 0.44100001
0.066451207 -0.046477433 0.44100001
0.067067005 -0.046372041 0.44000003
0.067833483 -0.046372041 0.44000003
0.068599962 -0.046372041 0.44000003
0.069524094 -0.046477433 0.44100001
0.070292316 -0.046477433 0.44100001
0.071060538 -0.046477433 0.44100001
0.07182876 -0.046477433 0.44100001
0.072596982 -0.046477433 0.44100001
0.073365204 -0.046477433 0.44100001
0.074133426 -0.046477433 0.44100001
0.074901648 -0.046477433 0.44100001
0.07566987 -0.046477433 0.44100001
0.076438092 -0.046477433 0.44100001
0.077381387 -0.046582825 0.44200003
0.078151353 -0.046582825 0.44200003
0.079099871 -0.046688218 0.44300002
0.080051877 -0.046793606 0.44400004
0.080825321 -0.046793606 0.44400004
0.081598766 -0.046793606 0.44400004
0.082372218 -0.046793606 0.44400004
0.14426896 -0.04510735 0.42800003
0.14467572 -0.045001961 0.42700002
0.14541955 -0.045001961 0.42700002
0.14582109 -0.044896569 0.42600003
0.14621913 -0.044791177 0.42500001
0.14695948 -0.044791177 0.42500001
0.14735231 -0.044685788 0.42400002
0.14809091 -0.044685788 0.42400002
0.14882952 -0.044685788 0.42400002
0.14956813 -0.044685788 0.42400002
0.15030673 -0.044685788 0.42400002
0.15104535 -0.044685788 0.42400002
0.15178396 -0.044685788 0.42400002
0.15288228 -0.044791177 0.42500001
0.15362263 -0.044791177 0.42500001
0.15436299 -0.044791177 0.42500001
0.15546829 -0.044896569 0.42600003
0.15657707 -0.045001961 0.42700002
0.1573209 -0.045001961 0.42700002
0.15843491 -0.04510735 0.42800003
0.15955241 -0.045212742 0.42900002
0.16029972 -0.045212742 0.42900002
0.16104704 -0.045212742 0.42900002
0.16179436 -0.045212742 0.42900002
0.16254167 -0.045212742 0.42900002
0.16366962 -0.045318134 0.43000001
0.16441868 -0.045318134 0.43000001
0.16555186 -0.045423523 0.43100002
0.16630265 -0.045423523 0.43100002
0.16705346 -0.045423523 0.43100002
0.16819359 -0.045528915 0.43200001
0.16894613 -0.045528915 0.43200001
0.16969869 -0.045528915 0.43200001
0.17084579 -0.045634307 0.43300003
0.17160007 -0.045634307 0.43300003
0.17235436 -0.045634307 0.43300003
0.17310865 -0.045634307 0.43300003
0.17386293 -0.045634307 0.43300003
0.17461722 -0.045634307 0.43300003
0.17537151 -0.045634307 0.43300003
-0.0068512866 -0.042910688 0.41400003
-0.0061300984 -0.042910688 0.41400003
-0.0053958455 -0.042807039 0.41300002
-0.0046650763 -0.04270339 0.41200003
-0.0039473721 -0.04270339 0.41200003
-0.0032296681 -0.04270339 0.41200003
-0.002505867 -0.042599741 0.41100001
-0.0017811951 -0.042392444 0.40900001
-0.001066104 -0.042288795 0.40800002
-0.00035362603 -0.042081498 0.40600002
0.00035362603 -0.042081498 0.40600002
0.001060878 -0.042081498 0.40600002
0.0017637751 -0.041977849 0.40500003
0.0024631883 -0.0418742 0.40400001
0.0031669561 -0.0418742 0.40400001
0.0038707242 -0.0418742 0.40400001
0.0045744921 -0.0418742 0.40400001
0.0051998701 -0.041252304 0.39800003
0.0058931862 -0.041252304 0.39800003
0.0065534045 -0.041045006 0.39600003
0.0072432365 -0.041045006 0.39600003
0.0079130353 -0.040941358 0.39500001
0.0086011253 -0.040941358 0.39500001
0.0092892153 -0.040941358 0.39500001
0.0099520469 -0.040837709 0.39400002
0.010638394 -0.040837709 0.39400002
0.011324743 -0.040837709 0.39400002
0.01201109 -0.040837709 0.39400002
0.012729666 -0.040941358 0.39500001
0.013451725 -0.041045006 0.39600003
0.014141557 -0.041045006 0.39600003
0.014868842 -0.041148655 0.39700001
0.015560416 -0.041148655 0.39700001
0.016251991 -0.041148655 0.39700001
0.016986243 -0.041252304 0.39800003
0.017723979 -0.041355953 0.39900002
0.018419039 -0.041355953 0.39900002
0.019162001 -0.041459601 0.40000001
0.019858802 -0.041459601 0.40000001
0.020606991 -0.04156325 0.40100002
0.021305533 -0.04156325 0.40100002
0.022004073 -0.04156325 0.40100002
0.022929076 -0.041977849 0.40500003
0.023634586 -0.041977849 0.40500003
0.024400195 -0.042081498 0.40600002
0.025169289 -0.042185146 0.40700001
0.025878282 -0.042185146 0.40700001
0.026652602 -0.042288795 0.40800002
0.027363338 -0.042288795 0.40800002
0.028074075 -0.042288795 0.40800002
0.028925912 -0.042496093 0.41000003
0.029640133 -0.042496093 0.41000003
0.030428387 -0.042599741 0.41100001
0.031144349 -0.042599741 0.41100001
0.031860311 -0.042599741 0.41100001
0.032576274 -0.042599741 0.41100001
0.033292234 -0.042599741 0.41100001
0.055264954 -0.046642054 0.45000002
0.0559243 -0.046538405 0.44900003
0.056580164 -0.046434756 0.44800001
0.057232544 -0.046331108 0.44700003
0.057881437 -0.046227455 0.44600001
0.058526848 -0.046123806 0.44500002
0.059302039 -0.046123806 0.44500002
0.060077228 -0.046123806 0.44500002
0.060715672 -0.046020158 0.44400004
0.06148912 -0.046020158 0.44400004
0.062122338 -0.045916509 0.44300002
0.062894046 -0.045916509 0.44300002
0.063522033 -0.04581286 0.44200003
0.064291999 -0.04581286 0.44200003
0.064914763 -0.045709211 0.44100001
0.065682985 -0.045709211 0.44100001
0.066451207 -0.045709211 0.44100001
0.067219429 -0.045709211 0.44100001
0.067987651 -0.045709211 0.44100001
0.068755873 -0.045709211 0.44100001
0.069524094 -0.045709211 0.44100001
0.070292316 -0.045709211 0.44100001
0.071060538 -0.045709211 0.44100001
0.07182876 -0.045709211 0.44100001
0.072596982 -0.045709211 0.44100001
0.073365204 -0.045709211 0.44100001
0.074133426 -0.045709211 0.44100001
0.075071491 -0.04581286 0.44200003
0.075841457 -0.04581286 0.44200003
0.076611422 -0.04581286 0.44200003
0.077556461 -0.045916509 0.44300002
0.078328162 -0.045916509 0.44300002
0.079278424 -0.046020158 0.44400004
0.080051877 -0.046020158 0.44400004
0.080825321 -0.046020158 0.44400004
0.082333893 -0.046434756 0.44800001
0.14426896 -0.044361774 0.42800003
0.14501454 -0.044361774 0.42800003
0.14541955 -0.044258125 0.42700002
0.14616339 -0.044258125 0.42700002
0.14621913 -0.044050828 0.42500001
0.14695948 -0.044050828 0.42500001
0.14735231 -0.043947179 0.42400002
0.14809091 -0.043947179 0.42400002
0.14882952 -0.043947179 0.42400002
0.14956813 -0.043947179 0.42400002
0.15030673 -0.043947179 0.42400002
0.15104535 -0.043947179 0.42400002
0.15214193 -0.044050828 0.42500001
0.15288228 -0.044050828 0.42500001
0.15362263 -0.044050828 0.42500001
0.15472619 -0.044154476 0.42600003
0.15583323 -0.044258125 0.42700002
0.15694375 -0.044361774 0.42800003
0.15768933 -0.044361774 0.42800003
0.15843491 -0.044361774 0.42800003
0.15955241 -0.044465423 0.42900002
0.16029972 -0.044465423 0.42900002
0.16104704 -0.044465423 0.42900002
0.16179436 -0.044465423 0.42900002
0.16292056 -0.044569071 0.43000001
0.16366962 -0.044569071 0.43000001
0.16480105 -0.04467272 0.43100002
0.16555186 -0.04467272 0.43100002
0.16630265 -0.04467272 0.43100002
0.16705346 -0.04467272 0.43100002
0.16819359 -0.044776373 0.43200001
0.16894613 -0.044776373 0.43200001
0.17009151 -0.044880021 0.43300003
0.17084579 -0.044880021 0.43300003
0.17160007 -0.044880021 0.43300003
0.17275241 -0.04498367 0.43400002
0.17350844 -0.04498367 0.43400002
0.17426446 -0.04498367 0.43400002
0.17502049 -0.04498367 0.43400002
0.17577653 -0.04498367 0.43400002
-0.0068678353 -0.042291407 0.41500002
-0.0061300984 -0.042189501 0.41400003
-0.0054089106 -0.042189501 0.41400003
-0.0046650763 -0.041985687 0.41200003
-0.0039569531 -0.042087592 0.41300002
-0.0032296681 -0.041985687 0.41200003
-0.0025119642 -0.041985687 0.41200003
-0.0017942601 -0.041985687 0.41200003
-0.0010634911 -0.041476153 0.40700001
-0.00035449702 -0.041476153 0.40700001
0.00035362603 -0.041374244 0.40600002
0.001060878 -0.041374244 0.40600002
0.0017637751 -0.041272338 0.40500003
0.0024692852 -0.041272338 0.40500003
0.0031669561 -0.041170429 0.40400001
0.0038707242 -0.041170429 0.40400001
0.0045744921 -0.041170429 0.40400001
0.0052782604 -0.041170429 0.40400001
0.0059820283 -0.041170429 0.40400001
0.0066857962 -0.041170429 0.40400001
0.0072432365 -0.040355176 0.39600003
0.0079330681 -0.040355176 0.39600003
0.0086011253 -0.040253267 0.39500001
0.0092892153 -0.040253267 0.39500001
0.0099773053 -0.040253267 0.39500001
0.010665395 -0.040253267 0.39500001
0.011353485 -0.040253267 0.39500001
0.012041576 -0.040253267 0.39500001
0.012761893 -0.040355176 0.39600003
0.013451725 -0.040355176 0.39600003
0.014177267 -0.040457081 0.39700001
0.014868842 -0.040457081 0.39700001
0.015560416 -0.040457081 0.39700001
0.016292928 -0.04055899 0.39800003
0.016986243 -0.04055899 0.39800003
0.017723979 -0.040660895 0.39900002
0.018419039 -0.040660895 0.39900002
0.019162001 -0.040762801 0.40000001
0.019858802 -0.040762801 0.40000001
0.020606991 -0.04086471 0.40100002
0.021411795 -0.041068524 0.40300003
0.022168694 -0.041170429 0.40400001
0.022929076 -0.041272338 0.40500003
0.023692943 -0.041374244 0.40600002
0.024400195 -0.041374244 0.40600002
0.025169289 -0.041476153 0.40700001
0.025878282 -0.041476153 0.40700001
0.026652602 -0.041578058 0.40800002
0.027363338 -0.041578058 0.40800002
0.028211692 -0.041781873 0.41000003
0.028925912 -0.041781873 0.41000003
0.029712426 -0.041883778 0.41100001
0.030428387 -0.041883778 0.41100001
0.031144349 -0.041883778 0.41100001
0.031860311 -0.041883778 0.41100001
0.032576274 -0.041883778 0.41100001
0.056048855 -0.045858152 0.45000002
0.056706458 -0.045756247 0.44900003
0.057104506 -0.045450523 0.44600001
0.058011215 -0.045552433 0.44700003
0.058526848 -0.045348618 0.44500002
0.059302039 -0.045348618 0.44500002
0.060077228 -0.045348618 0.44500002
0.06085242 -0.045348618 0.44500002
0.06148912 -0.045246709 0.44400004
0.062262569 -0.045246709 0.44400004
0.063036017 -0.045246709 0.44400004
0.063665748 -0.045144804 0.44300002
0.064291999 -0.045042899 0.44200003
0.065061964 -0.045042899 0.44200003
0.065831929 -0.045042899 0.44200003
0.066601887 -0.045042899 0.44200003
0.067219429 -0.044940989 0.44100001
0.067987651 -0.044940989 0.44100001
0.068755873 -0.044940989 0.44100001
0.069524094 -0.044940989 0.44100001
0.070292316 -0.044940989 0.44100001
0.071060538 -0.044940989 0.44100001
0.07182876 -0.044940989 0.44100001
0.072596982 -0.044940989 0.44100001
0.073531568 -0.045042899 0.44200003
0.074301533 -0.045042899 0.44200003
0.075071491 -0.045042899 0.44200003
0.075841457 -0.045042899 0.44200003
0.076784752 -0.045144804 0.44300002
0.077731527 -0.045246709 0.44400004
0.078681789 -0.045348618 0.44500002
0.079635538 -0.045450523 0.44600001
0.080592766 -0.045552433 0.44700003
0.081553474 -0.045654338 0.44800001
0.082333893 -0.045654338 0.44800001
0.083114311 -0.045654338 0.44800001
0.14460604 -0.043718107 0.42900002
0.14501454 -0.043616198 0.42800003
0.14541955 -0.043514293 0.42700002
0.14616339 -0.043514293 0.42700002
0.14656317 -0.043412384 0.42600003
0.14695948 -0.043310478 0.42500001
0.14769983 -0.043310478 0.42500001
0.14809091 -0.043208569 0.42400002
0.14882952 -0.043208569 0.42400002
0.14956813 -0.043208569 0.42400002
0.15030673 -0.043208569 0.42400002
0.15140158 -0.043310478 0.42500001
0.15214193 -0.043310478 0.42500001
0.15288228 -0.043310478 0.42500001
0.1539841 -0.043412384 0.42600003
0.15508939 -0.043514293 0.42700002
0.15619819 -0.043616198 0.42800003
0.15694375 -0.043616198 0.42800003
0.15768933 -0.043616198 0.42800003
0.15843491 -0.043616198 0.42800003
0.15955241 -0.043718107 0.42900002
0.16029972 -0.043718107 0.42900002
0.16104704 -0.043718107 0.42900002
0.1621715 -0.043820012 0.43000001
0.16292056 -0.043820012 0.43000001
0.16366962 -0.043820012 0.43000001
0.16480105 -0.043921921 0.43100002
0.16555186 -0.043921921 0.43100002
0.16630265 -0.043921921 0.43100002
0.16744106 -0.044023827 0.43200001
0.16819359 -0.044023827 0.43200001
0.16894613 -0.044023827 0.43200001
0.17009151 -0.044125732 0.43300003
0.17084579 -0.044125732 0.43300003
0.17160007 -0.044125732 0.43300003
0.17275241 -0.044227641 0.43400002
0.17350844 -0.044227641 0.43400002
0.17426446 -0.044227641 0.43400002
0.17502049 -0.044227641 0.43400002
0.17577653 -0.044227641 0.43400002
-0.0061300984 -0.041468311 0.41400003
-0.0046763993 -0.041368149 0.41300002
-0.0039569531 -0.041368149 0.41300002
-0.0032296681 -0.041267984 0.41200003
-0.0025119642 -0.041267984 0.41200003
-0.0017942601 -0.041267984 0.41200003
-0.001060878 -0.040666994 0.40600002
-0.00035362603 -0.040666994 0.40600002
0.00035362603 -0.040666994 0.40600002
0.001060878 -0.040666994 0.40600002
0.0017637751 -0.040566828 0.40500003
0.0024631883 -0.040466662 0.40400001
0.0031669561 -0.040466662 0.40400001
0.0038707242 -0.040466662 0.40400001
0.0045744921 -0.040466662 0.40400001
0.0052782604 -0.040466662 0.40400001
0.0059524146 -0.040266331 0.40200001
0.0066526984 -0.040266331 0.40200001
0.0072432365 -0.039665341 0.39600003
0.0079330681 -0.039665341 0.39600003
0.0086229006 -0.039665341 0.39600003
0.0093127321 -0.039665341 0.39600003
0.0099773053 -0.039565176 0.39500001
0.010665395 -0.039565176 0.39500001
0.011353485 -0.039565176 0.39500001
0.012041576 -0.039565176 0.39500001
0.012761893 -0.039665341 0.39600003
0.013451725 -0.039665341 0.39600003
0.014177267 -0.039765507 0.39700001
0.014906295 -0.039865673 0.39800003
0.015599611 -0.039865673 0.39800003
0.016333863 -0.039965838 0.39900002
0.017028922 -0.039965838 0.39900002
0.017723979 -0.039965838 0.39900002
0.018419039 -0.039965838 0.39900002
0.019162001 -0.040066004 0.40000001
0.019908449 -0.040166166 0.40100002
0.020606991 -0.040166166 0.40100002
0.021464925 -0.040466662 0.40400001
0.022223566 -0.040566828 0.40500003
0.022985691 -0.040666994 0.40600002
0.023692943 -0.040666994 0.40600002
0.024400195 -0.040666994 0.40600002
0.025169289 -0.040767159 0.40700001
0.025878282 -0.040767159 0.40700001
0.026652602 -0.040867321 0.40800002
0.027430404 -0.040967487 0.40900001
0.028211692 -0.041067652 0.41000003
0.028996462 -0.041167818 0.41100001
0.029712426 -0.041167818 0.41100001
0.030428387 -0.041167818 0.41100001
0.031144349 -0.041167818 0.41100001
0.031860311 -0.041167818 0.41100001
0.032576274 -0.041167818 0.41100001
0.056173407 -0.045174416 0.45100003
0.056832753 -0.045074254 0.45000002
0.057488617 -0.044974089 0.44900003
0.058270775 -0.044974089 0.44900003
0.05878989 -0.044773757 0.44700003
0.059435301 -0.044673592 0.44600001
0.060212232 -0.044673592 0.44600001
0.06085242 -0.044573426 0.44500002
0.061627608 -0.044573426 0.44500002
0.062262569 -0.044473264 0.44400004
0.063036017 -0.044473264 0.44400004
0.063809462 -0.044473264 0.44400004
0.064437456 -0.044373099 0.44300002
0.065061964 -0.044272933 0.44200003
0.065831929 -0.044272933 0.44200003
0.066601887 -0.044272933 0.44200003
0.067371853 -0.044272933 0.44200003
0.068141818 -0.044272933 0.44200003
0.068911783 -0.044272933 0.44200003
0.069681749 -0.044272933 0.44200003
0.070451714 -0.044272933 0.44200003
0.071221672 -0.044272933 0.44200003
0.071991637 -0.044272933 0.44200003
0.072761603 -0.044272933 0.44200003
0.073531568 -0.044272933 0.44200003
0.074301533 -0.044272933 0.44200003
0.075241342 -0.044373099 0.44300002
0.07618463 -0.044473264 0.44400004
0.076958083 -0.044473264 0.44400004
0.077906601 -0.044573426 0.44500002
0.078681789 -0.044573426 0.44500002
0.079635538 -0.044673592 0.44600001
0.080592766 -0.044773757 0.44700003
0.081553474 -0.044873923 0.44800001
0.082333893 -0.044873923 0.44800001
0.083114311 -0.044873923 0.44800001
0.083894722 -0.044873923 0.44800001
0.14419405 -0.043070953 0.43000001
0.14494312 -0.043070953 0.43000001
0.14535336 -0.042970788 0.42900002
0.14576012 -0.042870622 0.42800003
0.14616339 -0.042770457 0.42700002
0.14690723 -0.042770457 0.42700002
0.14730527 -0.042670291 0.42600003
0.14769983 -0.042570129 0.42500001
0.14844018 -0.042570129 0.42500001
0.14918053 -0.042570129 0.42500001
0.14992088 -0.042570129 0.42500001
0.15066123 -0.042570129 0.42500001
0.15140158 -0.042570129 0.42500001
0.15249991 -0.042670291 0.42600003
0.15324201 -0.042670291 0.42600003
0.15434557 -0.042770457 0.42700002
0.15545261 -0.042870622 0.42800003
0.15619819 -0.042870622 0.42800003
0.15694375 -0.042870622 0.42800003
0.15768933 -0.042870622 0.42800003
0.15880509 -0.042970788 0.42900002
0.15955241 -0.042970788 0.42900002
0.16029972 -0.042970788 0.42900002
0.16142245 -0.043070953 0.43000001
0.1621715 -0.043070953 0.43000001
0.16292056 -0.043070953 0.43000001
0.16366962 -0.043070953 0.43000001
0.16480105 -0.043171119 0.43100002
0.16555186 -0.043171119 0.43100002
0.16630265 -0.043171119 0.43100002
0.16744106 -0.043271285 0.43200001
0.16819359 -0.043271285 0.43200001
0.16933721 -0.043371446 0.43300003
0.17009151 -0.043371446 0.43300003
0.17124036 -0.043471612 0.43400002
0.17199638 -0.043471612 0.43400002
0.17275241 -0.043471612 0.43400002
0.17350844 -0.043471612 0.43400002
0.17426446 -0.043471612 0.43400002
0.17502049 -0.043471612 0.43400002
0.17618154 -0.043571778 0.43500003
0.17693931 -0.043571778 0.43500003
-0.0039569531 -0.040648703 0.41300002
-0.0032296681 -0.04055028 0.41200003
-0.0025119642 -0.04055028 0.41200003
-0.0017942601 -0.04055028 0.41200003
-0.001076556 -0.04055028 0.41200003
-0.00035885203 -0.04055028 0.41200003
0.00035362603 -0.03995974 0.40600002
0.001060878 -0.03995974 0.40600002
0.0017637751 -0.039861318 0.40500003
0.0024692852 -0.039861318 0.40500003
0.0031669561 -0.039762896 0.40400001
0.0038707242 -0.039762896 0.40400001
0.0045631691 -0.03966447 0.40300003
0.0052651954 -0.03966447 0.40300003
0.0059524146 -0.039566047 0.40200001
0.0066526984 -0.039566047 0.40200001
0.0072432365 -0.038975511 0.39600003
0.0079330681 -0.038975511 0.39600003
0.0086229006 -0.038975511 0.39600003
0.0093127321 -0.038975511 0.39600003
0.010002565 -0.038975511 0.39600003
0.010692396 -0.038975511 0.39600003
0.011382229 -0.038975511 0.39600003
0.012072061 -0.038975511 0.39600003
0.01279412 -0.039073933 0.39700001
0.013485694 -0.039073933 0.39700001
0.014177267 -0.039073933 0.39700001
0.014906295 -0.039172355 0.39800003
0.015638806 -0.039270781 0.39900002
0.016333863 -0.039270781 0.39900002
0.017028922 -0.039270781 0.39900002
0.017768402 -0.039369203 0.40000001
0.0184652 -0.039369203 0.40000001
0.019209906 -0.039467625 0.40100002
0.019908449 -0.039467625 0.40100002
0.020812547 -0.039861318 0.40500003
0.021518057 -0.039861318 0.40500003
0.022223566 -0.039861318 0.40500003
0.022985691 -0.03995974 0.40600002
0.0237513 -0.040058162 0.40700001
0.024460295 -0.040058162 0.40700001
0.02523113 -0.040156588 0.40800002
0.025941866 -0.040156588 0.40800002
0.026717927 -0.04025501 0.40900001
0.027497472 -0.040353432 0.41000003
0.0282805 -0.040451854 0.41100001
0.028996462 -0.040451854 0.41100001
0.029712426 -0.040451854 0.41100001
0.030502422 -0.04055028 0.41200003
0.031144349 -0.040451854 0.41100001
0.031860311 -0.040451854 0.41100001
0.032576274 -0.040451854 0.41100001
0.055510577 -0.044487197 0.45200002
0.056173407 -0.044388775 0.45100003
0.056832753 -0.044290353 0.45000002
0.057616655 -0.044290353 0.45000002
0.058270775 -0.04419193 0.44900003
0.058921412 -0.044093508 0.44800001
0.059701826 -0.044093508 0.44800001
0.060212232 -0.04389666 0.44600001
0.060989168 -0.04389666 0.44600001
0.061627608 -0.043798238 0.44500002
0.062262569 -0.043699816 0.44400004
0.063036017 -0.043699816 0.44400004
0.063809462 -0.043699816 0.44400004
0.064582914 -0.043699816 0.44400004
0.065209158 -0.04360139 0.44300002
0.065980867 -0.04360139 0.44300002
0.066601887 -0.043502968 0.44200003
0.067371853 -0.043502968 0.44200003
0.068141818 -0.043502968 0.44200003
0.068911783 -0.043502968 0.44200003
0.069681749 -0.043502968 0.44200003
0.070451714 -0.043502968 0.44200003
0.071221672 -0.043502968 0.44200003
0.071991637 -0.043502968 0.44200003
0.072761603 -0.043502968 0.44200003
0.073697925 -0.04360139 0.44300002
0.074469633 -0.04360139 0.44300002
0.075411186 -0.043699816 0.44400004
0.07618463 -0.043699816 0.44400004
0.076958083 -0.043699816 0.44400004
0.077906601 -0.043798238 0.44500002
0.078858607 -0.04389666 0.44600001
0.079635538 -0.04389666 0.44600001
0.080592766 -0.043995082 0.44700003
0.081553474 -0.044093508 0.44800001
0.082333893 -0.044093508 0.44800001
0.083114311 -0.044093508 0.44800001
0.14377859 -0.042420316 0.43100002
0.14419405 -0.042321894 0.43000001
0.14494312 -0.042321894 0.43000001
0.14535336 -0.042223468 0.42900002
0.14576012 -0.042125046 0.42800003
0.1465057 -0.042125046 0.42800003
0.14690723 -0.042026624 0.42700002
0.14730527 -0.041928202 0.42600003
0.14769983 -0.041829776 0.42500001
0.14844018 -0.041829776 0.42500001
0.14918053 -0.041829776 0.42500001
0.14992088 -0.041829776 0.42500001
0.15066123 -0.041829776 0.42500001
0.15175782 -0.041928202 0.42600003
0.1528579 -0.042026624 0.42700002
0.15360174 -0.042026624 0.42700002
0.15434557 -0.042026624 0.42700002
0.15545261 -0.042125046 0.42800003
0.15619819 -0.042125046 0.42800003
0.15731046 -0.042223468 0.42900002
0.15805776 -0.042223468 0.42900002
0.15880509 -0.042223468 0.42900002
0.15955241 -0.042223468 0.42900002
0.16067338 -0.042321894 0.43000001
0.16142245 -0.042321894 0.43000001
0.1621715 -0.042321894 0.43000001
0.16292056 -0.042321894 0.43000001
0.16366962 -0.042321894 0.43000001
0.16480105 -0.042420316 0.43100002
0.16555186 -0.042420316 0.43100002
0.1666885 -0.042518739 0.43200001
0.16744106 -0.042518739 0.43200001
0.16858293 -0.042617161 0.43300003
0.16933721 -0.042617161 0.43300003
0.17048432 -0.042715583 0.43400002
0.17124036 -0.042715583 0.43400002
0.17199638 -0.042715583 0.43400002
0.17275241 -0.042715583 0.43400002
0.17350844 -0.042715583 0.43400002
0.17426446 -0.042715583 0.43400002
0.17542377 -0.042814009 0.43500003
0.17618154 -0.042814009 0.43500003
-0.0017986151 -0.039929256 0.41300002
-0.001076556 -0.039832573 0.41200003
-0.00035885203 -0.039832573 0.41200003
0.00035885203 -0.039832573 0.41200003
0.0010582651 -0.039155807 0.40500003
0.0017637751 -0.039155807 0.40500003
0.0024692852 -0.039155807 0.40500003
0.0031669561 -0.039059125 0.40400001
0.0038707242 -0.039059125 0.40400001
0.0045631691 -0.038962446 0.40300003
0.0052651954 -0.038962446 0.40300003
0.0059524146 -0.038865764 0.40200001
0.0066526984 -0.038865764 0.40200001
0.0072981096 -0.03857572 0.39900002
0.0079330681 -0.03828568 0.39600003
0.0086229006 -0.03828568 0.39600003
0.0093127321 -0.03828568 0.39600003
0.010002565 -0.03828568 0.39600003
0.010692396 -0.03828568 0.39600003
0.011382229 -0.03828568 0.39600003
0.012102546 -0.038382359 0.39700001
0.01279412 -0.038382359 0.39700001
0.013485694 -0.038382359 0.39700001
0.014212979 -0.038479041 0.39800003
0.014906295 -0.038479041 0.39800003
0.015638806 -0.03857572 0.39900002
0.016333863 -0.03857572 0.39900002
0.017071601 -0.038672403 0.40000001
0.017768402 -0.038672403 0.40000001
0.018511364 -0.038769085 0.40100002
0.019209906 -0.038769085 0.40100002
0.020107036 -0.039155807 0.40500003
0.020812547 -0.039155807 0.40500003
0.021518057 -0.039155807 0.40500003
0.022278439 -0.03925249 0.40600002
0.022985691 -0.03925249 0.40600002
0.0237513 -0.039349169 0.40700001
0.024460295 -0.039349169 0.40700001
0.02523113 -0.039445851 0.40800002
0.026005449 -0.03954253 0.40900001
0.026783252 -0.039639212 0.41000003
0.027497472 -0.039639212 0.41000003
0.0282805 -0.039735895 0.41100001
0.028996462 -0.039735895 0.41100001
0.029784719 -0.039832573 0.41200003
0.030502422 -0.039832573 0.41200003
0.031220125 -0.039832573 0.41200003
0.03193783 -0.039832573 0.41200003
0.032655533 -0.039832573 0.41200003
0.054965328 -0.043893177 0.45400003
0.055633385 -0.043796495 0.45300001
0.056297958 -0.043699816 0.45200002
0.057085343 -0.043699816 0.45200002
0.057744689 -0.043603133 0.45100003
0.058400553 -0.043506451 0.45000002
0.059052933 -0.043409772 0.44900003
0.059835091 -0.043409772 0.44900003
0.060482245 -0.04331309 0.44800001
0.060989168 -0.043119729 0.44600001
0.061627608 -0.043023046 0.44500002
0.0624028 -0.043023046 0.44500002
0.063177988 -0.043023046 0.44500002
0.063953176 -0.043023046 0.44500002
0.064582914 -0.042926367 0.44400004
0.065356359 -0.042926367 0.44400004
0.066129811 -0.042926367 0.44400004
0.066752575 -0.042829685 0.44300002
0.067524277 -0.042829685 0.44300002
0.068295985 -0.042829685 0.44300002
0.069067694 -0.042829685 0.44300002
0.069839396 -0.042829685 0.44300002
0.070611104 -0.042829685 0.44300002
0.071543947 -0.042926367 0.44400004
0.072317392 -0.042926367 0.44400004
0.073090844 -0.042926367 0.44400004
0.073864289 -0.042926367 0.44400004
0.074637733 -0.042926367 0.44400004
0.075411186 -0.042926367 0.44400004
0.07618463 -0.042926367 0.44400004
0.077131413 -0.043023046 0.44500002
0.078081667 -0.043119729 0.44600001
0.079035416 -0.043216411 0.44700003
0.079814091 -0.043216411 0.44700003
0.080773063 -0.04331309 0.44800001
0.081553474 -0.04331309 0.44800001
0.082333893 -0.04331309 0.44800001
0.14377859 -0.041669514 0.43100002
0.14452939 -0.041669514 0.43100002
0.14494312 -0.041572832 0.43000001
0.14569218 -0.041572832 0.43000001
0.14610069 -0.041476153 0.42900002
0.1465057 -0.04137947 0.42800003
0.14690723 -0.041282788 0.42700002
0.14765106 -0.041282788 0.42700002
0.14804736 -0.041186109 0.42600003
0.14844018 -0.041089427 0.42500001
0.14918053 -0.041089427 0.42500001
0.14992088 -0.041089427 0.42500001
0.15101573 -0.041186109 0.42600003
0.15211406 -0.041282788 0.42700002
0.1528579 -0.041282788 0.42700002
0.15360174 -0.041282788 0.42700002
0.15470703 -0.04137947 0.42800003
0.15545261 -0.04137947 0.42800003
0.15656313 -0.041476153 0.42900002
0.15731046 -0.041476153 0.42900002
0.15805776 -0.041476153 0.42900002
0.15880509 -0.041476153 0.42900002
0.15992431 -0.041572832 0.43000001
0.16067338 -0.041572832 0.43000001
0.16142245 -0.041572832 0.43000001
0.1621715 -0.041572832 0.43000001
0.16292056 -0.041572832 0.43000001
0.16405025 -0.041669514 0.43100002
0.16480105 -0.041669514 0.43100002
0.16555186 -0.041669514 0.43100002
0.1666885 -0.041766193 0.43200001
0.16744106 -0.041766193 0.43200001
0.16858293 -0.041862875 0.43300003
0.16972829 -0.041959558 0.43400002
0.17048432 -0.041959558 0.43400002
0.17124036 -0.041959558 0.43400002
0.17199638 -0.041959558 0.43400002
0.17315045 -0.042056236 0.43500003
0.17390822 -0.042056236 0.43500003
0.174666 -0.042056236 0.43500003
0.17542377 -0.042056236 0.43500003
0.17618154 -0.042056236 0.43500003
-0.0025241582 -0.039304748 0.41400003
-0.0017986151 -0.039209809 0.41300002
-0.001076556 -0.03911487 0.41200003
-0.00035885203 -0.03911487 0.41200003
0.00035885203 -0.03911487 0.41200003
0.001060878 -0.038545236 0.40600002
0.0017681301 -0.038545236 0.40600002
0.0024692852 -0.038450297 0.40500003
0.0031669561 -0.038355358 0.40400001
0.0038707242 -0.038355358 0.40400001
0.0045744921 -0.038355358 0.40400001
0.0052782604 -0.038355358 0.40400001
0.0059672212 -0.038260419 0.40300003
0.0066692475 -0.038260419 0.40300003
0.0072981096 -0.037880663 0.39900002
0.0079931673 -0.037880663 0.39900002
0.0086882254 -0.037880663 0.39900002
0.0093362499 -0.037690785 0.39700001
0.010027824 -0.037690785 0.39700001
0.010719398 -0.037690785 0.39700001
0.011410972 -0.037690785 0.39700001
0.012133031 -0.037785724 0.39800003
0.012826347 -0.037785724 0.39800003
0.013519662 -0.037785724 0.39800003
0.014212979 -0.037785724 0.39800003
0.014943748 -0.037880663 0.39900002
0.015638806 -0.037880663 0.39900002
0.016333863 -0.037880663 0.39900002
0.017071601 -0.037975602 0.40000001
0.017812822 -0.038070541 0.40100002
0.018511364 -0.038070541 0.40100002
0.019401526 -0.038450297 0.40500003
0.020156683 -0.038545236 0.40600002
0.020863935 -0.038545236 0.40600002
0.021571187 -0.038545236 0.40600002
0.022278439 -0.038545236 0.40600002
0.022985691 -0.038545236 0.40600002
0.0237513 -0.038640175 0.40700001
0.024460295 -0.038640175 0.40700001
0.02529297 -0.038830053 0.40900001
0.026069032 -0.038924992 0.41000003
0.026783252 -0.038924992 0.41000003
0.027564539 -0.039019931 0.41100001
0.0282805 -0.039019931 0.41100001
0.029067013 -0.03911487 0.41200003
0.029857012 -0.039209809 0.41300002
0.030576456 -0.039209809 0.41300002
