# .PCD v0.7 - Point Cloud Data file format
VERSION 0.7
FIELDS x y z
SIZE 4 4 4
TYPE F F F
COUNT 1 1 1
WIDTH 1338
HEIGHT 1
VIEWPOINT 0 0 0 1 0 0 0
POINTS 1338
DATA ascii
0.14477153 -0.053819966 0.47900003
0.14560595 -0.053819966 0.47900003
0.14644037 -0.053819966 0.47900003
0.14696732 -0.053707607 0.47800002
0.1478 -0.053707607 0.47800002
0.14863268 -0.053707607 0.47800002
0.14946535 -0.053707607 0.47800002
0.1499836 -0.053595245 0.47700003
0.15081453 -0.053595245 0.47700003
0.16278991 -0.047190782 0.42000002
0.16352154 -0.047190782 0.42000002
0.16386211 -0.047078423 0.41900003
0.16459201 -0.047078423 0.41900003
0.16492735 -0.046966065 0.41800001
0.16565549 -0.046966065 0.41800001
0.16638365 -0.046966065 0.41800001
0.16711181 -0.046966065 0.41800001
0.16743843 -0.046853706 0.41700003
0.16776158 -0.046741348 0.41600001
0.16848625 -0.046741348 0.41600001
0.15614156 -0.042584065 0.37900001
0.15680179 -0.042584065 0.37900001
0.157462 -0.042584065 0.37900001
0.16733217 -0.043258216 0.38500002
0.16843921 -0.043370578 0.38600001
0.16911162 -0.043370578 0.38600001
0.17022389 -0.043482937 0.38700002
0.17089805 -0.043482937 0.38700002
0.17157221 -0.043482937 0.38700002
0.17269143 -0.043595295 0.38800001
0.17381416 -0.043707654 0.38900003
0.17494036 -0.043820012 0.39000002
0.17561974 -0.043820012 0.39000002
0.17675117 -0.043932371 0.39100003
0.17788608 -0.044044729 0.39200002
0.17856894 -0.044044729 0.39200002
0.1792518 -0.044044729 0.39200002
0.17993468 -0.044044729 0.39200002
0.1810783 -0.044157092 0.39300001
0.1817629 -0.044157092 0.39300001
0.18244751 -0.044157092 0.39300001
0.18313211 -0.044157092 0.39300001
0.18381672 -0.044157092 0.39300001
-0.025296455 -0.050994441 0.46100003
-0.024440261 -0.050883822 0.46000001
-0.023536164 -0.050662588 0.45800003
-0.022688681 -0.050551973 0.45700002
-0.021844681 -0.050441355 0.45600003
-0.021004166 -0.050330739 0.45500001
-0.020211557 -0.050330739 0.45500001
-0.019418946 -0.050330739 0.45500001
-0.018626336 -0.050330739 0.45500001
-0.017833726 -0.050330739 0.45500001
-0.017078569 -0.050441355 0.45600003
-0.016284216 -0.050441355 0.45600003
-0.015523834 -0.050551973 0.45700002
-0.01472774 -0.050551973 0.45700002
-0.013962131 -0.050662588 0.45800003
-0.013164295 -0.050662588 0.45800003
-0.012366459 -0.050662588 0.45800003
-0.011568623 -0.050662588 0.45800003
-0.010794303 -0.050773207 0.45900002
-0.010016501 -0.050883822 0.46000001
-0.0092151808 -0.050883822 0.46000001
-0.0084321517 -0.050994441 0.46100003
-0.0076290895 -0.050994441 0.46100003
-0.0068260273 -0.050994441 0.46100003
-0.0060360306 -0.051105056 0.46200001
-0.0052312263 -0.051105056 0.46200001
-0.0044264221 -0.051105056 0.46200001
-0.0036216183 -0.051105056 0.46200001
-0.0028229111 -0.051215675 0.46300003
-0.0020163651 -0.051215675 0.46300003
-0.0012098191 -0.051215675 0.46300003
-0.00040414403 -0.05132629 0.46400002
0.00040501502 -0.051436909 0.46500003
0.0012150451 -0.051436909 0.46500003
0.002025075 -0.051436909 0.46500003
0.0028351052 -0.051436909 0.46500003
0.0036451353 -0.051436909 0.46500003
0.069919527 -0.052543078 0.47500002
0.070598036 -0.052432463 0.47400004
0.071423747 -0.052432463 0.47400004
0.072458498 -0.051989995 0.47000003
0.072653599 -0.051547524 0.46600002
0.073307723 -0.051436909 0.46500003
0.07395836 -0.05132629 0.46400002
0.07460551 -0.051215675 0.46300003
0.075412057 -0.051215675 0.46300003
0.076053984 -0.051105056 0.46200001
0.076692425 -0.050994441 0.46100003
0.077495486 -0.050994441 0.46100003
0.078128703 -0.050883822 0.46000001
0.078930028 -0.050883822 0.46000001
0.079384685 -0.050662588 0.45800003
0.080007449 -0.050551973 0.45700002
0.080803543 -0.050551973 0.45700002
0.081242532 -0.050330739 0.45500001
0.081854843 -0.050220121 0.45400003
0.082463674 -0.050109506 0.45300001
0.083252795 -0.050109506 0.45300001
0.083856404 -0.049998887 0.45200002
0.084643789 -0.049998887 0.45200002
0.08524216 -0.049888272 0.45100003
0.085837059 -0.049777653 0.45000002
0.086428463 -0.049667034 0.44900003
0.087210625 -0.049667034 0.44900003
0.08799278 -0.049667034 0.44900003
0.088774942 -0.049667034 0.44900003
0.089557096 -0.049667034 0.44900003
0.090138055 -0.049556419 0.44800001
0.090918466 -0.049556419 0.44800001
0.091698885 -0.049556419 0.44800001
0.092479303 -0.049556419 0.44800001
0.093051545 -0.0494458 0.44700003
0.09383022 -0.0494458 0.44700003
0.094608895 -0.0494458 0.44700003
0.095387571 -0.0494458 0.44700003
0.096381381 -0.049556419 0.44800001
0.0971618 -0.049556419 0.44800001
0.097942211 -0.049556419 0.44800001
0.098942995 -0.049667034 0.44900003
0.09972515 -0.049667034 0.44900003
0.10050731 -0.049667034 0.44900003
0.10128947 -0.049667034 0.44900003
0.10207163 -0.049667034 0.44900003
0.10308286 -0.049777653 0.45000002
0.10386676 -0.049777653 0.45000002
0.10465065 -0.049777653 0.45000002
0.13924938 -0.053428013 0.48300001
0.14009078 -0.053428013 0.48300001
0.14093216 -0.053428013 0.48300001
0.14148003 -0.053317398 0.48200002
0.14231966 -0.053317398 0.48200002
0.14286231 -0.053206779 0.48100004
0.14340144 -0.053096164 0.48000002
0.14423761 -0.053096164 0.48000002
0.14507377 -0.053096164 0.48000002
0.14590994 -0.053096164 0.48000002
0.14644037 -0.052985545 0.47900003
0.14727479 -0.052985545 0.47900003
0.1478 -0.05287493 0.47800002
0.14863268 -0.05287493 0.47800002
0.14946535 -0.05287493 0.47800002
0.15029803 -0.05287493 0.47800002
0.15113071 -0.05287493 0.47800002
0.16278991 -0.046459142 0.42000002
0.16352154 -0.046459142 0.42000002
0.16425319 -0.046459142 0.42000002
0.16459201 -0.046348527 0.41900003
0.16492735 -0.046237908 0.41800001
0.16565549 -0.046237908 0.41800001
0.16638365 -0.046237908 0.41800001
0.16711181 -0.046237908 0.41800001
0.16743843 -0.046127293 0.41700003
0.16776158 -0.046016674 0.41600001
0.16848625 -0.046016674 0.41600001
0.16880417 -0.045906059 0.41500002
0.1695271 -0.045906059 0.41500002
0.15548135 -0.041923847 0.37900001
0.15614156 -0.041923847 0.37900001
0.15680179 -0.041923847 0.37900001
0.157462 -0.041923847 0.37900001
0.15812223 -0.041923847 0.37900001
0.16887559 -0.042808782 0.38700002
0.17066374 -0.042919397 0.38800001
0.17133965 -0.042919397 0.38800001
0.17201555 -0.042919397 0.38800001
0.17313652 -0.043030016 0.38900003
0.17381416 -0.043030016 0.38900003
0.17538893 -0.04325125 0.39100003
0.17607005 -0.04325125 0.39100003
0.17720322 -0.043361865 0.39200002
0.17788608 -0.043361865 0.39200002
0.17856894 -0.043361865 0.39200002
0.17970909 -0.043472484 0.39300001
0.1803937 -0.043472484 0.39300001
0.18153906 -0.043583103 0.39400002
0.18222541 -0.043583103 0.39400002
0.18291175 -0.043583103 0.39400002
0.1835981 -0.043583103 0.39400002
-0.024440261 -0.050082505 0.46000001
-0.023536164 -0.049864754 0.45800003
-0.022688681 -0.049755879 0.45700002
-0.021892587 -0.049755879 0.45700002
-0.021050328 -0.049647003 0.45600003
-0.020255977 -0.049647003 0.45600003
-0.019418946 -0.049538128 0.45500001
-0.018667273 -0.049647003 0.45600003
-0.01787292 -0.049647003 0.45600003
-0.017116021 -0.049755879 0.45700002
-0.016319929 -0.049755879 0.45700002
-0.015523834 -0.049755879 0.45700002
-0.014759967 -0.049864754 0.45800003
-0.013962131 -0.049864754 0.45800003
-0.013193037 -0.049973629 0.45900002
-0.012420461 -0.050082505 0.46000001
-0.01161914 -0.050082505 0.46000001
-0.010817821 -0.050082505 0.46000001
-0.010016501 -0.050082505 0.46000001
-0.0092352135 -0.050191376 0.46100003
-0.0084321517 -0.050191376 0.46100003
-0.0076290895 -0.050191376 0.46100003
-0.0068408344 -0.050300252 0.46200001
-0.0060490952 -0.050409127 0.46300003
-0.0052425493 -0.050409127 0.46300003
-0.004436003 -0.050409127 0.46300003
-0.0036294572 -0.050409127 0.46300003
-0.0028229111 -0.050409127 0.46300003
-0.0020207202 -0.050518002 0.46400002
-0.001212432 -0.050518002 0.46400002
-0.00040501502 -0.050626878 0.46500003
0.00040501502 -0.050626878 0.46500003
0.001217658 -0.050735753 0.46600002
0.0020294301 -0.050735753 0.46600002
0.0028533961 -0.050953504 0.46800002
0.0036686521 -0.050953504 0.46800002
0.072497688 -0.050626878 0.46500003
0.073307723 -0.050626878 0.46500003
0.07395836 -0.050518002 0.46400002
0.07460551 -0.050409127 0.46300003
0.075412057 -0.050409127 0.46300003
0.076053984 -0.050300252 0.46200001
0.076692425 -0.050191376 0.46100003
0.077327386 -0.050082505 0.46000001
0.078128703 -0.050082505 0.46000001
0.078758441 -0.049973629 0.45900002
0.079384685 -0.049864754 0.45800003
0.080007449 -0.049755879 0.45700002
0.080449916 -0.049538128 0.45500001
0.081242532 -0.049538128 0.45500001
0.081854843 -0.049429253 0.45400003
0.082281634 -0.049211502 0.45200002
0.083069019 -0.049211502 0.45200002
0.083856404 -0.049211502 0.45200002
0.084456518 -0.049102627 0.45100003
0.085053153 -0.048993751 0.45000002
0.085837059 -0.048993751 0.45000002
0.086428463 -0.04888488 0.44900003
0.087210625 -0.04888488 0.44900003
0.087796807 -0.048776004 0.44800001
0.088577218 -0.048776004 0.44800001
0.089357637 -0.048776004 0.44800001
0.090138055 -0.048776004 0.44800001
0.090918466 -0.048776004 0.44800001
0.091494203 -0.048667129 0.44700003
0.092272878 -0.048667129 0.44700003
0.092843376 -0.048558254 0.44600001
0.093620315 -0.048558254 0.44600001
0.094608895 -0.048667129 0.44700003
0.095387571 -0.048667129 0.44700003
0.096166246 -0.048667129 0.44700003
0.0971618 -0.048776004 0.44800001
0.097942211 -0.048776004 0.44800001
0.098722629 -0.048776004 0.44800001
0.09972515 -0.04888488 0.44900003
0.10050731 -0.04888488 0.44900003
0.10128947 -0.04888488 0.44900003
0.10207163 -0.04888488 0.44900003
0.10308286 -0.048993751 0.45000002
0.10409757 -0.049102627 0.45100003
0.10488322 -0.049102627 0.45100003
0.10590316 -0.049211502 0.45200002
0.14231966 -0.052477755 0.48200002
0.14315931 -0.052477755 0.48200002
0.1437002 -0.052368879 0.48100004
0.14423761 -0.052260004 0.48000002
0.14507377 -0.052260004 0.48000002
0.14590994 -0.052260004 0.48000002
0.14674608 -0.052260004 0.48000002
0.14758225 -0.052260004 0.48000002
0.1481092 -0.052151129 0.47900003
0.14863268 -0.052042253 0.47800002
0.14946535 -0.052042253 0.47800002
0.15029803 -0.052042253 0.47800002
0.15113071 -0.052042253 0.47800002
0.16391088 -0.045836378 0.42100003
0.16425319 -0.045727503 0.42000002
0.16498484 -0.045727503 0.42000002
0.1653219 -0.045618627 0.41900003
0.16605181 -0.045618627 0.41900003
0.16638365 -0.045509752 0.41800001
0.16711181 -0.045509752 0.41800001
0.16743843 -0.045400877 0.41700003
0.16776158 -0.045292001 0.41600001
0.16848625 -0.045292001 0.41600001
0.16880417 -0.04518313 0.41500002
0.1687101 -0.044965379 0.41300002
0.15589158 -0.041372504 0.38000003
0.15614156 -0.041263629 0.37900001
0.15680179 -0.041263629 0.37900001
0.157462 -0.041263629 0.37900001
0.15812223 -0.041263629 0.37900001
0.15962034 -0.041481379 0.38100001
0.17133965 -0.042243503 0.38800001
0.17201555 -0.042243503 0.38800001
0.17313652 -0.042352378 0.38900003
0.17426097 -0.042461254 0.39000002
0.17583749 -0.042679004 0.39200002
0.17652035 -0.042679004 0.39200002
0.17720322 -0.042679004 0.39200002
0.17833987 -0.042787876 0.39300001
0.17902447 -0.042787876 0.39300001
0.17970909 -0.042787876 0.39300001
0.1803937 -0.042787876 0.39300001
0.18153906 -0.042896751 0.39400002
0.18222541 -0.042896751 0.39400002
0.18291175 -0.042896751 0.39400002
0.18406409 -0.043005627 0.39500001
-0.024334 -0.049066916 0.45800003
-0.023536164 -0.049066916 0.45800003
-0.022738328 -0.049066916 0.45800003
-0.021892587 -0.048959784 0.45700002
-0.021096492 -0.048959784 0.45700002
-0.020300398 -0.048959784 0.45700002
-0.019461624 -0.048852652 0.45600003
-0.018667273 -0.048852652 0.45600003
-0.017912116 -0.048959784 0.45700002
-0.017116021 -0.048959784 0.45700002
-0.016319929 -0.048959784 0.45700002
-0.015557803 -0.049066916 0.45800003
-0.014792194 -0.049174052 0.45900002
-0.014023101 -0.049281184 0.46000001
-0.013221781 -0.049281184 0.46000001
-0.012420461 -0.049281184 0.46000001
-0.01161914 -0.049281184 0.46000001
-0.010817821 -0.049281184 0.46000001
-0.010038275 -0.049388316 0.46100003
-0.0092352135 -0.049388316 0.46100003
-0.0084504429 -0.049495447 0.46200001
-0.0076456387 -0.049495447 0.46200001
-0.0068556415 -0.049602583 0.46300003
-0.0060490952 -0.049602583 0.46300003
-0.0052425493 -0.049602583 0.46300003
-0.004436003 -0.049602583 0.46300003
-0.0036294572 -0.049602583 0.46300003
-0.0028290083 -0.049709715 0.46400002
-0.002025075 -0.049816847 0.46500003
-0.0012150451 -0.049816847 0.46500003
-0.00040501502 -0.049816847 0.46500003
0.00040588604 -0.049923982 0.46600002
0.001217658 -0.049923982 0.46600002
0.0020381401 -0.050138246 0.46800002
0.0028533961 -0.050138246 0.46800002
0.0036686521 -0.050138246 0.46800002
0.0045030704 -0.050352514 0.47000003
0.071841829 -0.049923982 0.46600002
0.072653599 -0.049923982 0.46600002
0.073307723 -0.049816847 0.46500003
0.07395836 -0.049709715 0.46400002
0.07460551 -0.049602583 0.46300003
0.075412057 -0.049602583 0.46300003
0.075889364 -0.049388316 0.46100003
0.076692425 -0.049388316 0.46100003
0.077327386 -0.049281184 0.46000001
0.078128703 -0.049281184 0.46000001
0.078758441 -0.049174052 0.45900002
0.079384685 -0.049066916 0.45800003
0.080007449 -0.048959784 0.45700002
0.080626734 -0.048852652 0.45600003
0.081063978 -0.048638385 0.45400003
0.081854843 -0.048638385 0.45400003
0.082281634 -0.048424117 0.45200002
0.083069019 -0.048424117 0.45200002
0.083670877 -0.048316985 0.45100003
0.084456518 -0.048316985 0.45100003
0.085053153 -0.048209853 0.45000002
0.085646309 -0.048102722 0.44900003
0.086428463 -0.048102722 0.44900003
0.087016389 -0.047995586 0.44800001
0.087796807 -0.047995586 0.44800001
0.088577218 -0.047995586 0.44800001
0.089158177 -0.047888454 0.44700003
0.089936852 -0.047888454 0.44700003
0.090715528 -0.047888454 0.44700003
0.091289513 -0.047781322 0.44600001
0.092066444 -0.047781322 0.44600001
0.092843376 -0.047781322 0.44600001
0.093620315 -0.047781322 0.44600001
0.094397247 -0.047781322 0.44600001
0.095174178 -0.047781322 0.44600001
0.096166246 -0.047888454 0.44700003
0.0971618 -0.047995586 0.44800001
0.097942211 -0.047995586 0.44800001
0.098722629 -0.047995586 0.44800001
0.09972515 -0.048102722 0.44900003
0.10050731 -0.048102722 0.44900003
0.10128947 -0.048102722 0.44900003
0.10207163 -0.048102722 0.44900003
0.10308286 -0.048209853 0.45000002
0.10409757 -0.048316985 0.45100003
0.10488322 -0.048316985 0.45100003
0.10590316 -0.048424117 0.45200002
0.14674608 -0.051423844 0.48000002
0.14758225 -0.051423844 0.48000002
0.14841841 -0.051423844 0.48000002
0.14894362 -0.051316712 0.47900003
0.14946535 -0.051209576 0.47800002
0.15029803 -0.051209576 0.47800002
0.15113071 -0.051209576 0.47800002
0.1635651 -0.045210131 0.42200002
0.16391088 -0.045102995 0.42100003
0.16464427 -0.045102995 0.42100003
0.16498484 -0.044995863 0.42000002
0.16571647 -0.044995863 0.42000002
0.16605181 -0.044888731 0.41900003
0.16678171 -0.044888731 0.41900003
0.16711181 -0.044781595 0.41800001
0.16783997 -0.044781595 0.41800001
0.16816485 -0.044674464 0.41700003
0.16848625 -0.044567332 0.41600001
0.16880417 -0.044460196 0.41500002
0.15482113 -0.04060341 0.37900001
0.15548135 -0.04060341 0.37900001
0.15614156 -0.04060341 0.37900001
0.15680179 -0.04060341 0.37900001
0.157462 -0.04060341 0.37900001
0.15812223 -0.04060341 0.37900001
0.17245889 -0.041674741 0.38900003
0.17313652 -0.041674741 0.38900003
0.17381416 -0.041674741 0.38900003
0.17583749 -0.04199614 0.39200002
0.17697066 -0.042103272 0.39300001
0.17765526 -0.042103272 0.39300001
0.17833987 -0.042103272 0.39300001
0.17948002 -0.042210404 0.39400002
0.18016636 -0.042210404 0.39400002
0.18085271 -0.042210404 0.39400002
0.18153906 -0.042210404 0.39400002
0.18268791 -0.042317539 0.39500001
0.183376 -0.042317539 0.39500001
0.18453006 -0.042424671 0.39600003
0.1852199 -0.042424671 0.39600003
-0.023536164 -0.048269082 0.45800003
-0.022738328 -0.048269082 0.45800003
-0.021940492 -0.048269082 0.45800003
-0.021096492 -0.04816369 0.45700002
-0.020300398 -0.04816369 0.45700002
-0.019504305 -0.04816369 0.45700002
-0.01870821 -0.04816369 0.45700002
-0.017912116 -0.04816369 0.45700002
-0.017153475 -0.048269082 0.45800003
-0.016355639 -0.048269082 0.45800003
-0.015591772 -0.04837447 0.45900002
-0.014824421 -0.048479863 0.46000001
-0.014023101 -0.048479863 0.46000001
-0.013221781 -0.048479863 0.46000001
-0.012447461 -0.048585255 0.46100003
-0.0116444 -0.048585255 0.46100003
-0.010841338 -0.048585255 0.46100003
-0.010060051 -0.048690647 0.46200001
-0.0092552463 -0.048690647 0.46200001
-0.0084687332 -0.048796035 0.46300003
-0.0076621873 -0.048796035 0.46300003
-0.0068556415 -0.048796035 0.46300003
-0.0060490952 -0.048796035 0.46300003
-0.0052425493 -0.048796035 0.46300003
-0.0044455845 -0.048901428 0.46400002
-0.0036372961 -0.048901428 0.46400002
-0.0028351052 -0.04900682 0.46500003
-0.002025075 -0.04900682 0.46500003
-0.0012150451 -0.04900682 0.46500003
-0.00040588604 -0.049112208 0.46600002
0.00040588604 -0.049112208 0.46600002
0.0012202711 -0.0492176 0.46700001
0.0020381401 -0.049322993 0.46800002
0.0028533961 -0.049322993 0.46800002
0.0036764913 -0.049428381 0.46900001
0.0045030704 -0.049533773 0.47000003
0.071182482 -0.0492176 0.46700001
0.072653599 -0.049112208 0.46600002
0.073307723 -0.04900682 0.46500003
0.07411775 -0.04900682 0.46500003
0.074766643 -0.048901428 0.46400002
0.075412057 -0.048796035 0.46300003
0.075889364 -0.048585255 0.46100003
0.076692425 -0.048585255 0.46100003
0.077327386 -0.048479863 0.46000001
0.07795886 -0.04837447 0.45900002
0.078586854 -0.048269082 0.45800003
0.079384685 -0.048269082 0.45800003
0.080007449 -0.04816369 0.45700002
0.080626734 -0.048058297 0.45600003
0.081063978 -0.047847517 0.45400003
0.081674546 -0.047742125 0.45300001
0.082281634 -0.047636736 0.45200002
0.082885236 -0.047531344 0.45100003
0.083670877 -0.047531344 0.45100003
0.084269255 -0.047425952 0.45000002
0.084864147 -0.047320563 0.44900003
0.085646309 -0.047320563 0.44900003
0.08623597 -0.047215171 0.44800001
0.087016389 -0.047215171 0.44800001
0.087600827 -0.047109779 0.44700003
0.088379502 -0.047109779 0.44700003
0.089158177 -0.047109779 0.44700003
0.08973565 -0.047004391 0.44600001
0.090512581 -0.047004391 0.44600001
0.091289513 -0.047004391 0.44600001
0.092066444 -0.047004391 0.44600001
0.092843376 -0.047004391 0.44600001
0.093620315 -0.047004391 0.44600001
0.094397247 -0.047004391 0.44600001
0.095387571 -0.047109779 0.44700003
0.096166246 -0.047109779 0.44700003
0.0971618 -0.047215171 0.44800001
0.097942211 -0.047215171 0.44800001
0.098942995 -0.047320563 0.44900003
0.09972515 -0.047320563 0.44900003
0.10050731 -0.047320563 0.44900003
0.10128947 -0.047320563 0.44900003
0.10229896 -0.047425952 0.45000002
0.10308286 -0.047425952 0.45000002
0.10409757 -0.047531344 0.45100003
0.10488322 -0.047531344 0.45100003
0.10590316 -0.047636736 0.45200002
0.14977804 -0.050482292 0.47900003
0.15029803 -0.0503769 0.47800002
0.15113071 -0.0503769 0.47800002
0.16395269 -0.044580396 0.42300001
0.16430022 -0.044475004 0.42200002
0.16464427 -0.044369616 0.42100003
0.16537765 -0.044369616 0.42100003
0.16571647 -0.044264223 0.42000002
0.16605181 -0.044158831 0.41900003
0.16678171 -0.044158831 0.41900003
0.16711181 -0.044053439 0.41800001
0.16783997 -0.044053439 0.41800001
0.16816485 -0.043948051 0.41700003
0.16848625 -0.043842658 0.41600001
0.16880417 -0.043737266 0.41500002
0.1695271 -0.043737266 0.41500002
0.15548135 -0.039943192 0.37900001
0.15614156 -0.039943192 0.37900001
0.15680179 -0.039943192 0.37900001
0.157462 -0.039943192 0.37900001
0.17178124 -0.040997103 0.38900003
0.17245889 -0.040997103 0.38900003
0.17313652 -0.040997103 0.38900003
0.17560145 -0.041418664 0.39300001
0.17628606 -0.041418664 0.39300001
0.17697066 -0.041418664 0.39300001
0.17765526 -0.041418664 0.39300001
0.17879367 -0.041524056 0.39400002
0.17993554 -0.041629449 0.39500001
0.18062364 -0.041629449 0.39500001
0.18131173 -0.041629449 0.39500001
0.18199982 -0.041629449 0.39500001
0.18268791 -0.041629449 0.39500001
0.183376 -0.041629449 0.39500001
0.18453006 -0.041734837 0.39600003
-0.022738328 -0.047471244 0.45800003
-0.021940492 -0.047471244 0.45800003
-0.021142656 -0.047471244 0.45800003
-0.020300398 -0.047367595 0.45700002
-0.019504305 -0.047367595 0.45700002
-0.01870821 -0.047367595 0.45700002
-0.017951312 -0.047471244 0.45800003
-0.017153475 -0.047471244 0.45800003
-0.01639135 -0.047574893 0.45900002
-0.015625741 -0.047678541 0.46000001
-0.014824421 -0.047678541 0.46000001
-0.014023101 -0.047678541 0.46000001
-0.013250524 -0.04778219 0.46100003
-0.012447461 -0.04778219 0.46100003
-0.0116444 -0.04778219 0.46100003
-0.010841338 -0.04778219 0.46100003
-0.010081826 -0.047989491 0.46300003
-0.0092752799 -0.047989491 0.46300003
-0.0084687332 -0.047989491 0.46300003
-0.0076787365 -0.04809314 0.46400002
-0.0068704486 -0.04809314 0.46400002
-0.0060621602 -0.04809314 0.46400002
-0.0052651954 -0.048196789 0.46500003
-0.0044551655 -0.048196789 0.46500003
-0.0036451353 -0.048196789 0.46500003
-0.0028351052 -0.048196789 0.46500003
-0.0020294301 -0.048300438 0.46600002
-0.001217658 -0.048300438 0.46600002
-0.00040588604 -0.048300438 0.46600002
0.00040675703 -0.048404086 0.46700001
0.001222884 -0.048507735 0.46800002
0.0020381401 -0.048507735 0.46800002
0.0028594933 -0.048611384 0.46900001
0.0036843303 -0.048715033 0.47000003
0.071995996 -0.048404086 0.46700001
0.072653599 -0.048300438 0.46600002
0.07346537 -0.048300438 0.46600002
0.07411775 -0.048196789 0.46500003
0.074766643 -0.04809314 0.46400002
0.075412057 -0.047989491 0.46300003
0.076053984 -0.047885843 0.46200001
0.076692425 -0.04778219 0.46100003
0.077327386 -0.047678541 0.46000001
0.077789016 -0.047471244 0.45800003
0.078586854 -0.047471244 0.45800003
0.079211354 -0.047367595 0.45700002
0.080007449 -0.047367595 0.45700002
0.080626734 -0.047263946 0.45600003
0.081063978 -0.047056649 0.45400003
0.081494249 -0.046849351 0.45200002
0.082099594 -0.046745703 0.45100003
0.082885236 -0.046745703 0.45100003
0.083670877 -0.046745703 0.45100003
0.084269255 -0.046642054 0.45000002
0.084864147 -0.046538405 0.44900003
0.085455559 -0.046434756 0.44800001
0.08623597 -0.046434756 0.44800001
0.087016389 -0.046434756 0.44800001
0.087600827 -0.046331108 0.44700003
0.088379502 -0.046331108 0.44700003
0.088958718 -0.046227455 0.44600001
0.08973565 -0.046227455 0.44600001
0.090512581 -0.046227455 0.44600001
0.091289513 -0.046227455 0.44600001
0.092066444 -0.046227455 0.44600001
0.092843376 -0.046227455 0.44600001
0.093620315 -0.046227455 0.44600001
0.094397247 -0.046227455 0.44600001
0.095387571 -0.046331108 0.44700003
0.096381381 -0.046434756 0.44800001
0.0971618 -0.046434756 0.44800001
0.097942211 -0.046434756 0.44800001
0.098942995 -0.046538405 0.44900003
0.09972515 -0.046538405 0.44900003
0.10050731 -0.046538405 0.44900003
0.10128947 -0.046538405 0.44900003
0.10252628 -0.046745703 0.45100003
0.10331193 -0.046745703 0.45100003
0.10409757 -0.046745703 0.45100003
0.10511577 -0.046849351 0.45200002
0.10590316 -0.046849351 0.45200002
0.10669054 -0.046849351 0.45200002
0.14946535 -0.049544226 0.47800002
0.15029803 -0.049544226 0.47800002
0.16360168 -0.043947179 0.42400002
0.16395269 -0.04384353 0.42300001
0.16430022 -0.043739881 0.42200002
0.16503535 -0.043739881 0.42200002
0.16537765 -0.043636233 0.42100003
0.16571647 -0.043532584 0.42000002
0.16644812 -0.043532584 0.42000002
0.16678171 -0.043428935 0.41900003
0.16711181 -0.043325286 0.41800001
0.16783997 -0.043325286 0.41800001
0.16816485 -0.043221634 0.41700003
0.16848625 -0.043117985 0.41600001
0.16880417 -0.043014336 0.41500002
0.1691186 -0.042910688 0.41400003
0.16983978 -0.042910688 0.41400003
0.17056097 -0.042910688 0.41400003
0.16921353 -0.042392444 0.40900001
0.16951054 -0.042288795 0.40800002
0.17022128 -0.042288795 0.40800002
0.17093202 -0.042288795 0.40800002
0.17467558 -0.040837709 0.39400002
0.17536193 -0.040837709 0.39400002
0.17604828 -0.040837709 0.39400002
0.17673463 -0.040837709 0.39400002
0.17742097 -0.040837709 0.39400002
0.17810732 -0.040837709 0.39400002
0.17924745 -0.040941358 0.39500001
0.17993554 -0.040941358 0.39500001
0.18062364 -0.040941358 0.39500001
0.18131173 -0.040941358 0.39500001
0.18199982 -0.040941358 0.39500001
0.18315041 -0.041045006 0.39600003
0.18384025 -0.041045006 0.39600003
0.18453006 -0.041045006 0.39600003
-0.022787975 -0.046775315 0.45900002
-0.021940492 -0.04667341 0.45800003
-0.021142656 -0.04667341 0.45800003
-0.02034482 -0.04667341 0.45800003
-0.019546984 -0.04667341 0.45800003
-0.018749148 -0.04667341 0.45800003
-0.017990505 -0.046775315 0.45900002
-0.017190928 -0.046775315 0.45900002
-0.016427061 -0.046877224 0.46000001
-0.015625741 -0.046877224 0.46000001
-0.014856648 -0.046979129 0.46100003
-0.014053586 -0.046979129 0.46100003
-0.013250524 -0.046979129 0.46100003
-0.012447461 -0.046979129 0.46100003
-0.011669659 -0.047081038 0.46200001
-0.010864855 -0.047081038 0.46200001
-0.010081826 -0.047182944 0.46300003
-0.0092752799 -0.047182944 0.46300003
-0.0084687332 -0.047182944 0.46300003
-0.0076787365 -0.047284853 0.46400002
-0.0068704486 -0.047284853 0.46400002
-0.0060752253 -0.047386758 0.46500003
-0.0052651954 -0.047386758 0.46500003
-0.0044551655 -0.047386758 0.46500003
-0.0036451353 -0.047386758 0.46500003
-0.0028412021 -0.047488663 0.46600002
-0.0020294301 -0.047488663 0.46600002
-0.001217658 -0.047488663 0.46600002
-0.00040675703 -0.047590572 0.46700001
0.00040762802 -0.047692478 0.46800002
0.001222884 -0.047692478 0.46800002
0.0020424952 -0.047794387 0.46900001
0.0028594933 -0.047794387 0.46900001
0.071995996 -0.047590572 0.46700001
0.072653599 -0.047488663 0.46600002
0.07346537 -0.047488663 0.46600002
0.07411775 -0.047386758 0.46500003
0.074766643 -0.047284853 0.46400002
0.075412057 -0.047182944 0.46300003
0.075889364 -0.046979129 0.46100003
0.076526068 -0.046877224 0.46000001
0.077327386 -0.046877224 0.46000001
0.077789016 -0.04667341 0.45800003
0.078586854 -0.04667341 0.45800003
0.079211354 -0.046571501 0.45700002
0.080007449 -0.046571501 0.45700002
0.080626734 -0.046469595 0.45600003
0.081063978 -0.046265781 0.45400003
0.081494249 -0.046061967 0.45200002
0.082099594 -0.045960061 0.45100003
0.082885236 -0.045960061 0.45100003
0.083485357 -0.045858152 0.45000002
0.084081993 -0.045756247 0.44900003
0.084864147 -0.045756247 0.44900003
0.085455559 -0.045654338 0.44800001
0.08623597 -0.045654338 0.44800001
0.087016389 -0.045654338 0.44800001
0.087600827 -0.045552433 0.44700003
0.088379502 -0.045552433 0.44700003
0.088958718 -0.045450523 0.44600001
0.08973565 -0.045450523 0.44600001
0.090512581 -0.045450523 0.44600001
0.091289513 -0.045450523 0.44600001
0.092066444 -0.045450523 0.44600001
0.092843376 -0.045450523 0.44600001
0.093620315 -0.045450523 0.44600001
0.094608895 -0.045552433 0.44700003
0.095387571 -0.045552433 0.44700003
0.096381381 -0.045654338 0.44800001
0.0971618 -0.045654338 0.44800001
0.097942211 -0.045654338 0.44800001
0.098942995 -0.045756247 0.44900003
0.09972515 -0.045756247 0.44900003
0.10073116 -0.045858152 0.45000002
0.10174064 -0.045960061 0.45100003
0.10252628 -0.045960061 0.45100003
0.103541 -0.046061967 0.45200002
0.10432839 -0.046061967 0.45200002
0.10511577 -0.046061967 0.45200002
0.10590316 -0.046061967 0.45200002
0.10692658 -0.046163876 0.45300001
0.1077157 -0.046163876 0.45300001
0.16360168 -0.043208569 0.42400002
0.16395269 -0.043106664 0.42300001
0.16468956 -0.043106664 0.42300001
0.16503535 -0.043004755 0.42200002
0.16577047 -0.043004755 0.42200002
0.16611104 -0.04290285 0.42100003
0.16644812 -0.042800944 0.42000002
0.16717975 -0.042800944 0.42000002
0.1675116 -0.042699035 0.41900003
0.16783997 -0.04259713 0.41800001
0.16816485 -0.042495221 0.41700003
0.16889127 -0.042495221 0.41700003
0.16880417 -0.042291407 0.41500002
0.1695271 -0.042291407 0.41500002
0.16983978 -0.042189501 0.41400003
0.17056097 -0.042189501 0.41400003
0.16921353 -0.041679967 0.40900001
0.16992602 -0.041679967 0.40900001
0.17022128 -0.041578058 0.40800002
0.17093202 -0.041578058 0.40800002
0.17122206 -0.041476153 0.40700001
0.17193106 -0.041476153 0.40700001
0.17136753 -0.041170429 0.40400001
0.17207129 -0.041170429 0.40400001
0.17467558 -0.040151361 0.39400002
0.17536193 -0.040151361 0.39400002
0.17649509 -0.040253267 0.39500001
0.17673463 -0.040151361 0.39400002
0.17787127 -0.040253267 0.39500001
0.17855936 -0.040253267 0.39500001
0.17924745 -0.040253267 0.39500001
0.18039107 -0.040355176 0.39600003
0.18108091 -0.040355176 0.39600003
0.18177074 -0.040355176 0.39600003
0.18246058 -0.040355176 0.39600003
0.18315041 -0.040355176 0.39600003
0.18384025 -0.040355176 0.39600003
0.18453006 -0.040355176 0.39600003
-0.022837622 -0.046075903 0.46000001
-0.021988396 -0.045975737 0.45900002
-0.021188818 -0.045975737 0.45900002
-0.02034482 -0.045875572 0.45800003
-0.019589663 -0.045975737 0.45900002
-0.018790085 -0.045975737 0.45900002
-0.018029701 -0.046075903 0.46000001
-0.017228382 -0.046075903 0.46000001
-0.016427061 -0.046075903 0.46000001
-0.01565971 -0.046176068 0.46100003
-0.014856648 -0.046176068 0.46100003
-0.014053586 -0.046176068 0.46100003
-0.013250524 -0.046176068 0.46100003
-0.012474462 -0.046276234 0.46200001
-0.011694917 -0.0463764 0.46300003
-0.010888372 -0.0463764 0.46300003
-0.010081826 -0.0463764 0.46300003
-0.0092752799 -0.0463764 0.46300003
-0.0084870243 -0.046476562 0.46400002
-0.0076952856 -0.046576727 0.46500003
-0.0068852552 -0.046576727 0.46500003
-0.0060752253 -0.046576727 0.46500003
-0.0052765184 -0.046676893 0.46600002
-0.0044647465 -0.046676893 0.46600002
-0.0036529743 -0.046676893 0.46600002
-0.0028412021 -0.046676893 0.46600002
-0.0020337852 -0.046777058 0.46700001
-0.001222884 -0.046877224 0.46800002
-0.00040762802 -0.046877224 0.46800002
0.00040762802 -0.046877224 0.46800002
0.0012254971 -0.04697739 0.46900001
0.0020424952 -0.04697739 0.46900001
0.0028655902 -0.047077551 0.47000003
0.0036843303 -0.047077551 0.47000003
0.071995996 -0.046777058 0.46700001
0.072653599 -0.046676893 0.46600002
0.07346537 -0.046676893 0.46600002
0.07411775 -0.046576727 0.46500003
0.074766643 -0.046476562 0.46400002
0.075412057 -0.0463764 0.46300003
0.076053984 -0.046276234 0.46200001
0.076692425 -0.046176068 0.46100003
0.077327386 -0.046075903 0.46000001
0.077789016 -0.045875572 0.45800003
0.078415267 -0.045775406 0.45700002
0.079211354 -0.045775406 0.45700002
0.080007449 -0.045775406 0.45700002
0.080449916 -0.045575079 0.45500001
0.081063978 -0.045474913 0.45400003
0.081494249 -0.045274582 0.45200002
0.082099594 -0.045174416 0.45100003
0.082701452 -0.045074254 0.45000002
0.083485357 -0.045074254 0.45000002
0.084081993 -0.044974089 0.44900003
0.084864147 -0.044974089 0.44900003
0.085455559 -0.044873923 0.44800001
0.08623597 -0.044873923 0.44800001
0.08682216 -0.044773757 0.44700003
0.087600827 -0.044773757 0.44700003
0.088379502 -0.044773757 0.44700003
0.088958718 -0.044673592 0.44600001
0.08973565 -0.044673592 0.44600001
0.090512581 -0.044673592 0.44600001
0.091289513 -0.044673592 0.44600001
0.092066444 -0.044673592 0.44600001
0.092843376 -0.044673592 0.44600001
0.09383022 -0.044773757 0.44700003
0.094608895 -0.044773757 0.44700003
0.095600963 -0.044873923 0.44800001
0.096381381 -0.044873923 0.44800001
0.097378679 -0.044974089 0.44900003
0.098160833 -0.044974089 0.44900003
0.098942995 -0.044974089 0.44900003
0.099947259 -0.045074254 0.45000002
0.100955 -0.045174416 0.45100003
0.10174064 -0.045174416 0.45100003
0.10275362 -0.045274582 0.45200002
0.103541 -0.045274582 0.45200002
0.1045592 -0.045374747 0.45300001
0.10558088 -0.045474913 0.45400003
0.10637175 -0.045474913 0.45400003
0.10716262 -0.045474913 0.45400003
0.10795349 -0.045474913 0.45400003
0.10874435 -0.045474913 0.45400003
0.16247897 -0.042369798 0.42300001
0.16360168 -0.042469963 0.42400002
0.16434029 -0.042469963 0.42400002
0.16468956 -0.042369798 0.42300001
0.16503535 -0.042269632 0.42200002
0.16577047 -0.042269632 0.42200002
0.16611104 -0.042169467 0.42100003
0.16644812 -0.042069301 0.42000002
0.16678171 -0.041969139 0.41900003
0.16711181 -0.041868974 0.41800001
0.16783997 -0.041868974 0.41800001
0.16816485 -0.041768808 0.41700003
0.16848625 -0.041668642 0.41600001
0.16921093 -0.041668642 0.41600001
0.1691186 -0.041468311 0.41400003
0.16983978 -0.041468311 0.41400003
0.17056097 -0.041468311 0.41400003
0.16921353 -0.040967487 0.40900001
0.16992602 -0.040967487 0.40900001
0.17063849 -0.040967487 0.40900001
0.17093202 -0.040867321 0.40800002
0.17164275 -0.040867321 0.40800002
0.17150863 -0.040666994 0.40600002
0.17136753 -0.040466662 0.40400001
0.17207129 -0.040466662 0.40400001
0.17374274 -0.039565176 0.39500001
0.17443083 -0.039565176 0.39500001
0.17511892 -0.039565176 0.39500001
0.175807 -0.039565176 0.39500001
0.17649509 -0.039565176 0.39500001
0.17718318 -0.039565176 0.39500001
0.17787127 -0.039565176 0.39500001
0.17855936 -0.039565176 0.39500001
0.17970125 -0.039665341 0.39600003
0.18039107 -0.039665341 0.39600003
0.18108091 -0.039665341 0.39600003
0.18177074 -0.039665341 0.39600003
0.18246058 -0.039665341 0.39600003
0.18315041 -0.039665341 0.39600003
0.18384025 -0.039665341 0.39600003
-0.023638941 -0.045274582 0.46000001
-0.022837622 -0.045274582 0.46000001
-0.022036301 -0.045274582 0.46000001
-0.021234982 -0.045274582 0.46000001
-0.020433661 -0.045274582 0.46000001
-0.019632341 -0.045274582 0.46000001
-0.018831022 -0.045274582 0.46000001
-0.018029701 -0.045274582 0.46000001
-0.017228382 -0.045274582 0.46000001
-0.016462771 -0.045373008 0.46100003
-0.01565971 -0.045373008 0.46100003
-0.014888875 -0.04547143 0.46200001
-0.014084071 -0.04547143 0.46200001
-0.013279267 -0.04547143 0.46200001
-0.012501464 -0.045569852 0.46300003
-0.011694917 -0.045569852 0.46300003
-0.010888372 -0.045569852 0.46300003
-0.010103601 -0.045668274 0.46400002
-0.0092953127 -0.045668274 0.46400002
-0.0085053155 -0.045766696 0.46500003
-0.0076952856 -0.045766696 0.46500003
-0.0069000623 -0.045865122 0.46600002
-0.0060882904 -0.045865122 0.46600002
-0.0052765184 -0.045865122 0.46600002
-0.0044647465 -0.045865122 0.46600002
-0.0036529743 -0.045865122 0.46600002
-0.0028472992 -0.045963544 0.46700001
-0.0020381401 -0.046061967 0.46800002
-0.001222884 -0.046061967 0.46800002
-0.00040762802 -0.046061967 0.46800002
0.00040849904 -0.046160389 0.46900001
0.0012254971 -0.046160389 0.46900001
0.00204685 -0.046258815 0.47000003
0.0028655902 -0.046258815 0.47000003
0.0036843303 -0.046258815 0.47000003
0.071995996 -0.045963544 0.46700001
0.072653599 -0.045865122 0.46600002
0.07346537 -0.045865122 0.46600002
0.07411775 -0.045766696 0.46500003
0.074927777 -0.045766696 0.46500003
0.076053984 -0.04547143 0.46200001
0.076526068 -0.045274582 0.46000001
0.077159278 -0.04517616 0.45900002
0.077789016 -0.045077737 0.45800003
0.078415267 -0.044979315 0.45700002
0.079211354 -0.044979315 0.45700002
0.079832383 -0.044880889 0.45600003
0.080449916 -0.044782467 0.45500001
0.081063978 -0.044684045 0.45400003
0.081494249 -0.044487197 0.45200002
0.082099594 -0.044388775 0.45100003
0.082701452 -0.044290353 0.45000002
0.083299831 -0.04419193 0.44900003
0.084081993 -0.04419193 0.44900003
0.084675141 -0.044093508 0.44800001
0.085455559 -0.044093508 0.44800001
0.086043485 -0.043995082 0.44700003
0.08682216 -0.043995082 0.44700003
0.087600827 -0.043995082 0.44700003
0.088379502 -0.043995082 0.44700003
0.088958718 -0.04389666 0.44600001
0.08973565 -0.04389666 0.44600001
0.090512581 -0.04389666 0.44600001
0.091289513 -0.04389666 0.44600001
0.092272878 -0.043995082 0.44700003
0.093051545 -0.043995082 0.44700003
0.094040133 -0.044093508 0.44800001
0.094820552 -0.044093508 0.44800001
0.095600963 -0.044093508 0.44800001
0.096596517 -0.04419193 0.44900003
0.097378679 -0.04419193 0.44900003
0.098160833 -0.04419193 0.44900003
0.099163353 -0.044290353 0.45000002
0.10016936 -0.044388775 0.45100003
0.100955 -0.044388775 0.45100003
0.10196623 -0.044487197 0.45200002
0.10275362 -0.044487197 0.45200002
0.10377008 -0.044585623 0.45300001
0.10479002 -0.044684045 0.45400003
0.10558088 -0.044684045 0.45400003
0.10637175 -0.044684045 0.45400003
0.10739866 -0.044782467 0.45500001
0.10819127 -0.044782467 0.45500001
0.10898388 -0.044782467 0.45500001
0.10977649 -0.044782467 0.45500001
0.16360168 -0.041731354 0.42400002
0.16434029 -0.041731354 0.42400002
0.16468956 -0.041632932 0.42300001
0.16503535 -0.04153451 0.42200002
0.16577047 -0.04153451 0.42200002
0.16611104 -0.041436087 0.42100003
0.16644812 -0.041337661 0.42000002
0.16678171 -0.041239239 0.41900003
0.16711181 -0.041140817 0.41800001
0.16783997 -0.041140817 0.41800001
0.16816485 -0.041042395 0.41700003
0.16889127 -0.041042395 0.41700003
0.16921093 -0.040943969 0.41600001
0.1691186 -0.040747125 0.41400003
0.16983978 -0.040747125 0.41400003
0.17014898 -0.040648703 0.41300002
0.17086844 -0.040648703 0.41300002
0.17034148 -0.040353432 0.41000003
0.1710557 -0.040353432 0.41000003
0.17135097 -0.04025501 0.40900001
0.17164275 -0.040156588 0.40800002
0.17193106 -0.040058162 0.40700001
0.1717917 -0.039861318 0.40500003
0.17349276 -0.038975511 0.39600003
0.17374274 -0.038877089 0.39500001
0.17443083 -0.038877089 0.39500001
0.17511892 -0.038877089 0.39500001
0.175807 -0.038877089 0.39500001
0.17649509 -0.038877089 0.39500001
0.17718318 -0.038877089 0.39500001
0.17787127 -0.038877089 0.39500001
0.17901142 -0.038975511 0.39600003
0.17970125 -0.038975511 0.39600003
0.18084662 -0.039073933 0.39700001
0.18153818 -0.039073933 0.39700001
0.18222976 -0.039073933 0.39700001
0.18292134 -0.039073933 0.39700001
0.18361291 -0.039073933 0.39700001
0.18430448 -0.039073933 0.39700001
-0.023638941 -0.044473264 0.46000001
-0.022837622 -0.044473264 0.46000001
-0.022036301 -0.044473264 0.46000001
-0.021234982 -0.044473264 0.46000001
-0.020433661 -0.044473264 0.46000001
-0.019632341 -0.044473264 0.46000001
-0.018871957 -0.044569943 0.46100003
-0.018068897 -0.044569943 0.46100003
-0.017265834 -0.044569943 0.46100003
-0.016498484 -0.044666626 0.46200001
-0.015727649 -0.044763304 0.46300003
-0.014921102 -0.044763304 0.46300003
-0.014114556 -0.044763304 0.46300003
-0.01330801 -0.044763304 0.46300003
-0.012501464 -0.044763304 0.46300003
-0.011720177 -0.044859987 0.46400002
-0.010911888 -0.044859987 0.46400002
-0.010125375 -0.044956669 0.46500003
-0.0093153454 -0.044956669 0.46500003
-0.0085053155 -0.044956669 0.46500003
-0.0077118343 -0.045053348 0.46600002
-0.0069000623 -0.045053348 0.46600002
-0.0060882904 -0.045053348 0.46600002
-0.0052878414 -0.04515003 0.46700001
-0.0044839084 -0.045246709 0.46800002
-0.0036686521 -0.045246709 0.46800002
-0.0028533961 -0.045246709 0.46800002
-0.0020381401 -0.045246709 0.46800002
-0.0012254971 -0.045343392 0.46900001
-0.00040937003 -0.045440074 0.47000003
0.00040937003 -0.045440074 0.47000003
0.00122811 -0.045440074 0.47000003
0.00204685 -0.045440074 0.47000003
0.0028716873 -0.045536753 0.47100002
0.07346537 -0.045053348 0.46600002
0.076526068 -0.044473264 0.46000001
0.076991178 -0.044279899 0.45800003
0.077619173 -0.044183221 0.45700002
0.078415267 -0.044183221 0.45700002
0.079211354 -0.044183221 0.45700002
0.079832383 -0.044086538 0.45600003
0.080449916 -0.04398986 0.45500001
0.081063978 -0.043893177 0.45400003
0.081313953 -0.043603133 0.45100003
0.081917554 -0.043506451 0.45000002
0.082701452 -0.043506451 0.45000002
0.083299831 -0.043409772 0.44900003
0.084081993 -0.043409772 0.44900003
0.084675141 -0.04331309 0.44800001
0.085455559 -0.04331309 0.44800001
0.08623597 -0.04331309 0.44800001
0.08682216 -0.043216411 0.44700003
0.087600827 -0.043216411 0.44700003
0.088379502 -0.043216411 0.44700003
0.089158177 -0.043216411 0.44700003
0.089936852 -0.043216411 0.44700003
0.090715528 -0.043216411 0.44700003
0.091494203 -0.043216411 0.44700003
0.092479303 -0.04331309 0.44800001
0.093259715 -0.04331309 0.44800001
0.094040133 -0.04331309 0.44800001
0.094820552 -0.04331309 0.44800001
0.095814362 -0.043409772 0.44900003
0.096596517 -0.043409772 0.44900003
0.097378679 -0.043409772 0.44900003
0.098379456 -0.043506451 0.45000002
0.099383719 -0.043603133 0.45100003
0.10039147 -0.043699816 0.45200002
0.10117885 -0.043699816 0.45200002
0.10219182 -0.043796495 0.45300001
0.10320828 -0.043893177 0.45400003
0.10399915 -0.043893177 0.45400003
0.10479002 -0.043893177 0.45400003
0.10558088 -0.043893177 0.45400003
0.10660605 -0.04398986 0.45500001
0.10739866 -0.04398986 0.45500001
0.10819127 -0.04398986 0.45500001
0.10922341 -0.044086538 0.45600003
0.11001776 -0.044086538 0.45600003
0.16360168 -0.040992748 0.42400002
0.16434029 -0.040992748 0.42400002
0.16468956 -0.040896066 0.42300001
0.16542643 -0.040896066 0.42300001
0.16577047 -0.040799383 0.42200002
0.16611104 -0.040702704 0.42100003
0.16644812 -0.040606022 0.42000002
0.16717975 -0.040606022 0.42000002
0.1675116 -0.040509343 0.41900003
0.16783997 -0.040412661 0.41800001
0.16856812 -0.040412661 0.41800001
0.16889127 -0.040315978 0.41700003
0.16921093 -0.040219299 0.41600001
0.1695271 -0.040122617 0.41500002
0.16983978 -0.040025938 0.41400003
0.17014898 -0.039929256 0.41300002
0.17086844 -0.039929256 0.41300002
0.17034148 -0.039639212 0.41000003
0.1710557 -0.039639212 0.41000003
0.17135097 -0.03954253 0.40900001
0.17206345 -0.03954253 0.40900001
0.17277592 -0.03954253 0.40900001
0.17348841 -0.03954253 0.40900001
0.17349276 -0.03828568 0.39600003
0.17418259 -0.03828568 0.39600003
0.17443083 -0.038188998 0.39500001
0.17511892 -0.038188998 0.39500001
0.175807 -0.038188998 0.39500001
0.17649509 -0.038188998 0.39500001
0.17718318 -0.038188998 0.39500001
0.17832159 -0.03828568 0.39600003
0.17901142 -0.03828568 0.39600003
0.18015504 -0.038382359 0.39700001
0.18084662 -0.038382359 0.39700001
0.18153818 -0.038382359 0.39700001
0.18222976 -0.038382359 0.39700001
0.18292134 -0.038382359 0.39700001
0.18361291 -0.038382359 0.39700001
-0.02369033 -0.043766882 0.46100003
-0.022887269 -0.043766882 0.46100003
-0.022084206 -0.043766882 0.46100003
-0.021281144 -0.043766882 0.46100003
-0.020478083 -0.043766882 0.46100003
-0.01967502 -0.043766882 0.46100003
-0.018871957 -0.043766882 0.46100003
-0.01810809 -0.043861821 0.46200001
-0.017303288 -0.043861821 0.46200001
-0.016534194 -0.04395676 0.46300003
-0.015727649 -0.04395676 0.46300003
-0.014921102 -0.04395676 0.46300003
-0.014114556 -0.04395676 0.46300003
-0.01330801 -0.04395676 0.46300003
-0.012528465 -0.044051699 0.46400002
-0.011745436 -0.044146638 0.46500003
-0.010935405 -0.044146638 0.46500003
-0.010125375 -0.044146638 0.46500003
-0.0093153454 -0.044146638 0.46500003
-0.0085236067 -0.044241577 0.46600002
-0.0077118343 -0.044241577 0.46600002
-0.0069148694 -0.044336516 0.46700001
-0.0061013554 -0.044336516 0.46700001
-0.0052991644 -0.044431455 0.46800002
-0.0044839084 -0.044431455 0.46800002
-0.0036686521 -0.044431455 0.46800002
-0.0028533961 -0.044431455 0.46800002
-0.0020424952 -0.044526394 0.46900001
-0.00122811 -0.044621333 0.47000003
-0.00040937003 -0.044621333 0.47000003
0.00040937003 -0.044621333 0.47000003
0.07346537 -0.044241577 0.46600002
0.07619334 -0.043482065 0.45800003
0.076991178 -0.043482065 0.45800003
0.077619173 -0.043387126 0.45700002
0.078415267 -0.043387126 0.45700002
0.079211354 -0.043387126 0.45700002
0.079832383 -0.043292187 0.45600003
0.080449916 -0.043197248 0.45500001
0.081063978 -0.043102309 0.45400003
0.081313953 -0.042817492 0.45100003
0.082099594 -0.042817492 0.45100003
0.082701452 -0.042722553 0.45000002
0.083299831 -0.042627614 0.44900003
0.084081993 -0.042627614 0.44900003
0.084675141 -0.042532675 0.44800001
0.085455559 -0.042532675 0.44800001
0.08623597 -0.042532675 0.44800001
0.08682216 -0.042437736 0.44700003
0.087600827 -0.042437736 0.44700003
0.088379502 -0.042437736 0.44700003
0.089158177 -0.042437736 0.44700003
0.089936852 -0.042437736 0.44700003
0.090918466 -0.042532675 0.44800001
0.091698885 -0.042532675 0.44800001
0.092479303 -0.042532675 0.44800001
0.093259715 -0.042532675 0.44800001
0.094250046 -0.042627614 0.44900003
0.0950322 -0.042627614 0.44900003
0.096027754 -0.042722553 0.45000002
0.09681166 -0.042722553 0.45000002
0.097812437 -0.042817492 0.45100003
0.098598078 -0.042817492 0.45100003
0.099383719 -0.042817492 0.45100003
0.10039147 -0.042912431 0.45200002
0.1014027 -0.04300737 0.45300001
0.10219182 -0.04300737 0.45300001
0.10320828 -0.043102309 0.45400003
0.10399915 -0.043102309 0.45400003
0.10502083 -0.043197248 0.45500001
0.10581344 -0.043197248 0.45500001
0.10660605 -0.043197248 0.45500001
0.10739866 -0.043197248 0.45500001
0.10842905 -0.043292187 0.45600003
0.10922341 -0.043292187 0.45600003
0.11001776 -0.043292187 0.45600003
0.1105691 -0.043197248 0.45500001
0.16360168 -0.040254138 0.42400002
0.16434029 -0.040254138 0.42400002
0.16507889 -0.040254138 0.42400002
0.16542643 -0.040159199 0.42300001
0.16577047 -0.04006426 0.42200002
0.16611104 -0.039969321 0.42100003
0.16684441 -0.039969321 0.42100003
0.16717975 -0.039874382 0.42000002
0.1675116 -0.039779443 0.41900003
0.1682415 -0.039779443 0.41900003
0.16856812 -0.039684504 0.41800001
0.16889127 -0.039589565 0.41700003
0.16921093 -0.039494626 0.41600001
0.1695271 -0.039399687 0.41500002
0.16983978 -0.039304748 0.41400003
0.17014898 -0.039209809 0.41300002
0.17086844 -0.039209809 0.41300002
0.17075695 -0.039019931 0.41100001
0.17147291 -0.039019931 0.41100001
0.17176992 -0.038924992 0.41000003
0.17206345 -0.038830053 0.40900001
0.17277592 -0.038830053 0.40900001
0.1717917 -0.038450297 0.40500003
0.17249721 -0.038450297 0.40500003
0.17277506 -0.038355358 0.40400001
0.17347883 -0.038355358 0.40400001
0.17393087 -0.037690785 0.39700001
0.17462245 -0.037690785 0.39700001
0.17487243 -0.037595846 0.39600003
0.17556225 -0.037595846 0.39600003
0.175807 -0.037500907 0.39500001
0.17694192 -0.037595846 0.39600003
0.17763175 -0.037595846 0.39600003
0.17832159 -0.037595846 0.39600003
0.17946346 -0.037690785 0.39700001
0.18015504 -0.037690785 0.39700001
0.18084662 -0.037690785 0.39700001
0.18199547 -0.037785724 0.39800003
0.18268877 -0.037785724 0.39800003
0.18338209 -0.037785724 0.39800003
-0.024440261 -0.042870622 0.46000001
-0.02369033 -0.042963821 0.46100003
-0.022887269 -0.042963821 0.46100003
-0.022084206 -0.042963821 0.46100003
-0.021281144 -0.042963821 0.46100003
-0.020478083 -0.042963821 0.46100003
-0.01967502 -0.042963821 0.46100003
-0.018912895 -0.043057017 0.46200001
-0.01810809 -0.043057017 0.46200001
-0.01734074 -0.043150213 0.46300003
-0.016534194 -0.043150213 0.46300003
-0.015727649 -0.043150213 0.46300003
-0.014953329 -0.043243412 0.46400002
-0.014145041 -0.043243412 0.46400002
-0.013365496 -0.043336608 0.46500003
-0.012555466 -0.043336608 0.46500003
-0.011745436 -0.043336608 0.46500003
-0.010935405 -0.043336608 0.46500003
-0.010147151 -0.043429803 0.46600002
-0.0093353782 -0.043429803 0.46600002
-0.0085236067 -0.043429803 0.46600002
-0.0077283834 -0.043523002 0.46700001
-0.0069296765 -0.043616198 0.46800002
-0.0061144205 -0.043616198 0.46800002
-0.0052991644 -0.043616198 0.46800002
0.076823078 -0.042591032 0.45700002
0.077619173 -0.042591032 0.45700002
0.078415267 -0.042591032 0.45700002
0.079038031 -0.042497836 0.45600003
0.079657309 -0.042404637 0.45500001
0.080449916 -0.042404637 0.45500001
0.081063978 -0.042311441 0.45400003
0.081313953 -0.042031851 0.45100003
0.081917554 -0.041938651 0.45000002
0.082701452 -0.041938651 0.45000002
0.083299831 -0.041845456 0.44900003
0.084081993 -0.041845456 0.44900003
0.084675141 -0.04175226 0.44800001
0.085455559 -0.04175226 0.44800001
0.08623597 -0.04175226 0.44800001
0.087016389 -0.04175226 0.44800001
0.087600827 -0.041659061 0.44700003
0.088379502 -0.041659061 0.44700003
0.089357637 -0.04175226 0.44800001
0.090138055 -0.04175226 0.44800001
0.090918466 -0.04175226 0.44800001
0.091698885 -0.04175226 0.44800001
0.092685729 -0.041845456 0.44900003
0.093467884 -0.041845456 0.44900003
0.094250046 -0.041845456 0.44900003
0.095243856 -0.041938651 0.45000002
0.096241154 -0.042031851 0.45100003
0.097026795 -0.042031851 0.45100003
0.097812437 -0.042031851 0.45100003
0.0988167 -0.042125046 0.45200002
0.099604085 -0.042125046 0.45200002
0.10061357 -0.042218242 0.45300001
0.10162655 -0.042311441 0.45400003
0.10241741 -0.042311441 0.45400003
0.10320828 -0.042311441 0.45400003
0.10422822 -0.042404637 0.45500001
0.10502083 -0.042404637 0.45500001
0.10581344 -0.042404637 0.45500001
0.10684035 -0.042497836 0.45600003
0.1076347 -0.042497836 0.45600003
0.10866684 -0.042591032 0.45700002
0.10946293 -0.042591032 0.45700002
