# .PCD v0.7 - Point Cloud Data file format
VERSION 0.7
FIELDS x y z
SIZE 4 4 4
TYPE F F F
COUNT 1 1 1
WIDTH 1295
HEIGHT 1
VIEWPOINT 0 0 0 1 0 0 0
POINTS 1295
DATA ascii
0.0073477565 -0.032098092 0.44400004
0.0081212046 -0.032098092 0.44400004
0.0089146858 -0.032170389 0.44500002
0.0096898759 -0.032170389 0.44500002
0.010488583 -0.032242682 0.44600001
0.011290774 -0.032314975 0.44700003
0.012096449 -0.032387268 0.44800001
0.012905608 -0.032459561 0.44900003
0.013687766 -0.032459561 0.44900003
0.014502151 -0.032531854 0.45000002
0.015286051 -0.032531854 0.45000002
0.016069951 -0.032531854 0.45000002
0.016891304 -0.032604147 0.45100003
0.017676946 -0.032604147 0.45100003
-0.019290909 -0.031889055 0.45200002
-0.018462589 -0.031818502 0.45100003
-0.017676946 -0.031818502 0.45100003
-0.01685385 -0.031747952 0.45000002
-0.01603424 -0.031677403 0.44900003
-0.015252082 -0.031677403 0.44900003
-0.014469923 -0.031677403 0.44900003
-0.013474371 -0.031183545 0.44200003
-0.012704407 -0.031183545 0.44200003
-0.011907442 -0.031112993 0.44100001
-0.01111396 -0.031042442 0.44000003
-0.010347481 -0.031042442 0.44000003
-0.0095810005 -0.031042442 0.44000003
-0.0088145202 -0.031042442 0.44000003
-0.0080297496 -0.03097189 0.43900001
-0.0072153644 -0.030760238 0.43600002
-0.0064410456 -0.030689687 0.43500003
-0.0056832754 -0.030689687 0.43500003
-0.0049141822 -0.030619135 0.43400002
-0.0041581541 -0.030619135 0.43400002
-0.0034021263 -0.030619135 0.43400002
-0.0026460981 -0.030619135 0.43400002
-0.0018900702 -0.030619135 0.43400002
-0.0011366551 -0.030689687 0.43500003
-0.00038062703 -0.030830789 0.43700001
0.00038236903 -0.03097189 0.43900001
0.0011471071 -0.03097189 0.43900001
0.0019162002 -0.031042442 0.44000003
0.0026826803 -0.031042442 0.44000003
0.0034569993 -0.031112993 0.44100001
0.0042252215 -0.031112993 0.44100001
0.0050160894 -0.031254094 0.44300002
0.0058008605 -0.031324647 0.44400004
0.0065743085 -0.031324647 0.44400004
0.0073477565 -0.031324647 0.44400004
0.0081394957 -0.031395197 0.44500002
0.0089146858 -0.031395197 0.44500002
0.0097116502 -0.031465746 0.44600001
0.010488583 -0.031465746 0.44600001
0.011290774 -0.0315363 0.44700003
0.012096449 -0.031606849 0.44800001
0.012905608 -0.031677403 0.44900003
0.013687766 -0.031677403 0.44900003
0.014502151 -0.031747952 0.45000002
0.01532002 -0.031818502 0.45100003
0.016105661 -0.031818502 0.45100003
0.016891304 -0.031818502 0.45100003
0.017676946 -0.031818502 0.45100003
-0.019290909 -0.03110167 0.45200002
-0.018503524 -0.03110167 0.45200002
-0.017676946 -0.03103286 0.45100003
-0.01685385 -0.030964052 0.45000002
-0.01603424 -0.030895242 0.44900003
-0.015218113 -0.030826434 0.44800001
-0.014437697 -0.030826434 0.44800001
-0.013657281 -0.030826434 0.44800001
-0.012761893 -0.030551197 0.44400004
-0.011907442 -0.030344771 0.44100001
-0.01113922 -0.030344771 0.44100001
-0.010347481 -0.030275961 0.44000003
-0.0095810005 -0.030275961 0.44000003
-0.0088145202 -0.030275961 0.44000003
-0.0080297496 -0.030207153 0.43900001
-0.0072319135 -0.030069536 0.43700001
-0.0064558522 -0.030000726 0.43600002
-0.0056832754 -0.029931918 0.43500003
-0.0049255053 -0.029931918 0.43500003
-0.0041677351 -0.029931918 0.43500003
-0.0034099652 -0.029931918 0.43500003
-0.002652195 -0.029931918 0.43500003
-0.0018944251 -0.029931918 0.43500003
-0.001139268 -0.030000726 0.43600002
-0.00038062703 -0.030069536 0.43700001
0.00038236903 -0.030207153 0.43900001
0.0011471071 -0.030207153 0.43900001
0.0019162002 -0.030275961 0.44000003
0.0026887772 -0.030344771 0.44100001
0.0034569993 -0.030344771 0.44100001
0.0042348024 -0.030413579 0.44200003
0.0050160894 -0.030482389 0.44300002
0.0058008605 -0.030551197 0.44400004
0.0065743085 -0.030551197 0.44400004
0.0073477565 -0.030551197 0.44400004
0.0081394957 -0.030620007 0.44500002
0.0089347186 -0.030688817 0.44600001
0.0097116502 -0.030688817 0.44600001
0.0105121 -0.030757625 0.44700003
0.011316033 -0.030826434 0.44800001
0.012096449 -0.030826434 0.44800001
0.012905608 -0.030895242 0.44900003
0.013687766 -0.030895242 0.44900003
0.014534377 -0.03103286 0.45100003
0.01532002 -0.03103286 0.45100003
0.016105661 -0.03103286 0.45100003
0.016928757 -0.03110167 0.45200002
0.017676946 -0.03103286 0.45100003
-0.022738328 -0.030716687 0.45800003
-0.021892587 -0.030649621 0.45700002
-0.021096492 -0.030649621 0.45700002
-0.020300398 -0.030649621 0.45700002
-0.019546984 -0.030716687 0.45800003
-0.018585399 -0.03044842 0.45400003
-0.017716141 -0.030314285 0.45200002
-0.016891304 -0.030247219 0.45100003
-0.01603424 -0.030113084 0.44900003
-0.015252082 -0.030113084 0.44900003
-0.014437697 -0.030046018 0.44800001
-0.013657281 -0.030046018 0.44800001
-0.012761893 -0.02977775 0.44400004
-0.011988445 -0.02977775 0.44400004
-0.011164479 -0.029643616 0.44200003
-0.010370998 -0.029576549 0.44100001
-0.0095810005 -0.029509481 0.44000003
-0.0088145202 -0.029509481 0.44000003
-0.0080297496 -0.029442415 0.43900001
-0.0072319135 -0.02930828 0.43700001
-0.0064706593 -0.02930828 0.43700001
-0.0056963405 -0.029241214 0.43600002
-0.0049255053 -0.029174147 0.43500003
-0.0041677351 -0.029174147 0.43500003
-0.0034099652 -0.029174147 0.43500003
-0.0026582922 -0.029241214 0.43600002
-0.0018987801 -0.029241214 0.43600002
-0.0011418811 -0.02930828 0.43700001
-0.00038236903 -0.029442415 0.43900001
0.00038236903 -0.029442415 0.43900001
0.00114972 -0.029509481 0.44000003
0.0019162002 -0.029509481 0.44000003
0.0026887772 -0.029576549 0.44100001
0.0034569993 -0.029576549 0.44100001
0.0042348024 -0.029643616 0.44200003
0.0050160894 -0.029710682 0.44300002
0.0058008605 -0.02977775 0.44400004
0.0065743085 -0.02977775 0.44400004
0.0073643057 -0.029844817 0.44500002
0.0081577869 -0.029911883 0.44600001
0.0089347186 -0.029911883 0.44600001
0.0097552007 -0.030046018 0.44800001
0.010535616 -0.030046018 0.44800001
0.011316033 -0.030046018 0.44800001
0.01212345 -0.030113084 0.44900003
0.012905608 -0.030113084 0.44900003
0.013748736 -0.030247219 0.45100003
0.014534377 -0.030247219 0.45100003
0.015353989 -0.030314285 0.45200002
0.016141374 -0.030314285 0.45200002
0.016928757 -0.030314285 0.45200002
0.017716141 -0.030314285 0.45200002
-0.022787975 -0.029984176 0.45900002
-0.021988396 -0.029984176 0.45900002
-0.021142656 -0.029918851 0.45800003
-0.02034482 -0.029918851 0.45800003
-0.019546984 -0.029918851 0.45800003
-0.018749148 -0.029918851 0.45800003
-0.017951312 -0.029918851 0.45800003
-0.016928757 -0.029526902 0.45200002
-0.016069951 -0.029396253 0.45000002
-0.015252082 -0.029330926 0.44900003
-0.014437697 -0.029265601 0.44800001
-0.013657281 -0.029265601 0.44800001
-0.012819379 -0.029134952 0.44600001
-0.012015446 -0.029069627 0.44500002
-0.011214997 -0.029004302 0.44400004
-0.010418031 -0.028938977 0.44300002
-0.0095810005 -0.028743003 0.44000003
-0.0088145202 -0.028743003 0.44000003
-0.0080297496 -0.028677676 0.43900001
-0.0072650113 -0.028677676 0.43900001
-0.0064854664 -0.028612351 0.43800002
-0.0057094055 -0.028547026 0.43700001
-0.0049368283 -0.028481701 0.43600002
-0.0041773161 -0.028481701 0.43600002
-0.0034178041 -0.028481701 0.43600002
-0.0026643891 -0.028547026 0.43700001
-0.0019031351 -0.028547026 0.43700001
-0.0011471071 -0.028677676 0.43900001
-0.00038236903 -0.028677676 0.43900001
0.00038324003 -0.028743003 0.44000003
0.00114972 -0.028743003 0.44000003
0.0019205551 -0.028808327 0.44100001
0.0026887772 -0.028808327 0.44100001
0.0034648383 -0.028873652 0.44200003
0.0042348024 -0.028873652 0.44200003
0.0050274124 -0.029004302 0.44400004
0.0058139255 -0.029069627 0.44500002
0.0065891156 -0.029069627 0.44500002
0.0073643057 -0.029069627 0.44500002
0.0081577869 -0.029134952 0.44600001
0.0089547513 -0.029200276 0.44700003
0.0097552007 -0.029265601 0.44800001
0.010535616 -0.029265601 0.44800001
0.011341291 -0.029330926 0.44900003
0.01212345 -0.029330926 0.44900003
0.01293435 -0.029396253 0.45000002
0.013748736 -0.029461578 0.45100003
0.014566605 -0.029526902 0.45200002
0.015353989 -0.029526902 0.45200002
0.016177084 -0.029592227 0.45300001
0.016966211 -0.029592227 0.45300001
0.017716141 -0.029526902 0.45200002
0.018503524 -0.029526902 0.45200002
0.019290909 -0.029526902 0.45200002
-0.022837622 -0.029248182 0.46000001
-0.022036301 -0.029248182 0.46000001
-0.021142656 -0.029121015 0.45800003
-0.02034482 -0.029121015 0.45800003
-0.019546984 -0.029121015 0.45800003
-0.018749148 -0.029121015 0.45800003
-0.017951312 -0.029121015 0.45800003
-0.016928757 -0.028739518 0.45200002
-0.016141374 -0.028739518 0.45200002
-0.015252082 -0.02854877 0.44900003
-0.014469923 -0.02854877 0.44900003
-0.013687766 -0.02854877 0.44900003
-0.012819379 -0.02835802 0.44600001
-0.012015446 -0.028294437 0.44500002
-0.011214997 -0.028230853 0.44400004
-0.010441548 -0.028230853 0.44400004
-0.0095810005 -0.027976522 0.44000003
-0.0088145202 -0.027976522 0.44000003
-0.0080480408 -0.027976522 0.44000003
-0.0072650113 -0.027912939 0.43900001
-0.0064854664 -0.027849356 0.43800002
-0.0057094055 -0.027785772 0.43700001
-0.0049481513 -0.027785772 0.43700001
-0.0041868971 -0.027785772 0.43700001
-0.0034256433 -0.027785772 0.43700001
-0.0026643891 -0.027785772 0.43700001
-0.0019031351 -0.027785772 0.43700001
-0.0011471071 -0.027912939 0.43900001
-0.00038236903 -0.027912939 0.43900001
0.00038324003 -0.027976522 0.44000003
0.00114972 -0.027976522 0.44000003
0.0019205551 -0.028040105 0.44100001
0.0026948741 -0.028103687 0.44200003
0.0034648383 -0.028103687 0.44200003
0.0042443834 -0.02816727 0.44300002
0.0050387355 -0.028294437 0.44500002
0.0058139255 -0.028294437 0.44500002
0.0066039222 -0.02835802 0.44600001
0.0073808543 -0.02835802 0.44600001
0.0081760772 -0.028421603 0.44700003
0.008974785 -0.028485186 0.44800001
0.0097552007 -0.028485186 0.44800001
0.010559133 -0.02854877 0.44900003
0.011341291 -0.02854877 0.44900003
0.012150451 -0.028612351 0.45000002
0.012963094 -0.028675934 0.45100003
0.013779221 -0.028739518 0.45200002
0.014566605 -0.028739518 0.45200002
0.015387958 -0.028803101 0.45300001
0.016177084 -0.028803101 0.45300001
0.016966211 -0.028803101 0.45300001
0.017755335 -0.028803101 0.45300001
0.018503524 -0.028739518 0.45200002
0.019290909 -0.028739518 0.45200002
-0.022837622 -0.028446862 0.46000001
-0.022036301 -0.028446862 0.46000001
-0.021188818 -0.028385021 0.45900002
-0.02038924 -0.028385021 0.45900002
-0.019546984 -0.028323179 0.45800003
-0.018749148 -0.028323179 0.45800003
-0.017951312 -0.028323179 0.45800003
-0.017153475 -0.028323179 0.45800003
-0.016069951 -0.027828451 0.45000002
-0.015286051 -0.027828451 0.45000002
-0.014469923 -0.027766611 0.44900003
-0.013687766 -0.027766611 0.44900003
-0.012819379 -0.027581088 0.44600001
-0.012042447 -0.027581088 0.44600001
-0.011240256 -0.027519247 0.44500002
-0.010441548 -0.027457405 0.44400004
-0.0096027758 -0.027271884 0.44100001
-0.0088145202 -0.027210042 0.44000003
-0.0080480408 -0.027210042 0.44000003
-0.0072650113 -0.0271482 0.43900001
-0.0065002735 -0.0271482 0.43900001
-0.0057094055 -0.027024519 0.43700001
-0.0049481513 -0.027024519 0.43700001
-0.0041868971 -0.027024519 0.43700001
-0.0034256433 -0.027024519 0.43700001
-0.0026643891 -0.027024519 0.43700001
-0.0019074901 -0.02708636 0.43800002
-0.0011471071 -0.0271482 0.43900001
-0.00038324003 -0.027210042 0.44000003
0.00038324003 -0.027210042 0.44000003
0.0011523331 -0.027271884 0.44100001
0.0019205551 -0.027271884 0.44100001
0.0026948741 -0.027333723 0.44200003
0.0034805161 -0.027457405 0.44400004
0.0042539644 -0.027457405 0.44400004
0.0050387355 -0.027519247 0.44500002
0.0058269906 -0.027581088 0.44600001
0.0066039222 -0.027581088 0.44600001
0.0073808543 -0.027581088 0.44600001
0.0081943683 -0.02770477 0.44800001
0.008974785 -0.02770477 0.44800001
0.009776976 -0.027766611 0.44900003
0.010559133 -0.027766611 0.44900003
0.011366551 -0.027828451 0.45000002
0.012177452 -0.027890293 0.45100003
0.012991837 -0.027952135 0.45200002
0.013779221 -0.027952135 0.45200002
0.014598832 -0.028013974 0.45300001
0.015421927 -0.028075816 0.45400003
0.016212795 -0.028075816 0.45400003
0.017003663 -0.028075816 0.45400003
0.017755335 -0.028013974 0.45300001
0.018503524 -0.027952135 0.45200002
0.019290909 -0.027952135 0.45200002
-0.022887269 -0.027705641 0.46100003
-0.022084206 -0.027705641 0.46100003
-0.021234982 -0.027645541 0.46000001
-0.02038924 -0.027585443 0.45900002
-0.019546984 -0.027525343 0.45800003
-0.018749148 -0.027525343 0.45800003
-0.017951312 -0.027525343 0.45800003
-0.017153475 -0.027525343 0.45800003
-0.016105661 -0.027104652 0.45100003
-0.01532002 -0.027104652 0.45100003
-0.014469923 -0.026984453 0.44900003
-0.013657281 -0.026924353 0.44800001
-0.012848122 -0.026864255 0.44700003
-0.012042447 -0.026804157 0.44600001
-0.011240256 -0.026744056 0.44500002
-0.010465066 -0.026744056 0.44500002
-0.0096463254 -0.026623858 0.44300002
-0.0088145202 -0.026443562 0.44000003
-0.0080480408 -0.026443562 0.44000003
-0.0072650113 -0.026383463 0.43900001
-0.0064854664 -0.026323363 0.43800002
-0.0057224706 -0.026323363 0.43800002
-0.0049481513 -0.026263265 0.43700001
-0.0041868971 -0.026263265 0.43700001
-0.0034334823 -0.026323363 0.43800002
-0.0026704862 -0.026323363 0.43800002
-0.0019118452 -0.026383463 0.43900001
-0.0011471071 -0.026383463 0.43900001
-0.00038324003 -0.026443562 0.44000003
0.00038324003 -0.026443562 0.44000003
0.0011523331 -0.02650366 0.44100001
0.0019249101 -0.02656376 0.44200003
0.0027009712 -0.026623858 0.44300002
0.0034805161 -0.026683958 0.44400004
0.0042635454 -0.026744056 0.44500002
0.0050500585 -0.026804157 0.44600001
0.0058269906 -0.026804157 0.44600001
0.0066039222 -0.026804157 0.44600001
0.0073974035 -0.026864255 0.44700003
0.0081943683 -0.026924353 0.44800001
0.008974785 -0.026924353 0.44800001
0.009776976 -0.026984453 0.44900003
0.010559133 -0.026984453 0.44900003
0.01139181 -0.027104652 0.45100003
0.012177452 -0.027104652 0.45100003
0.012991837 -0.02716475 0.45200002
0.013809706 -0.027224848 0.45300001
0.014631059 -0.027284948 0.45400003
0.015421927 -0.027284948 0.45400003
0.016212795 -0.027284948 0.45400003
0.017003663 -0.027284948 0.45400003
0.017794531 -0.027284948 0.45400003
-0.022887269 -0.026902579 0.46100003
-0.022084206 -0.026902579 0.46100003
-0.021234982 -0.026844222 0.46000001
-0.020433661 -0.026844222 0.46000001
-0.019589663 -0.026785865 0.45900002
-0.018749148 -0.026727507 0.45800003
-0.017951312 -0.026727507 0.45800003
-0.017153475 -0.026727507 0.45800003
-0.016319929 -0.02666915 0.45700002
-0.015523834 -0.02666915 0.45700002
-0.014373243 -0.026027223 0.44600001
-0.013596311 -0.026027223 0.44600001
-0.012819379 -0.026027223 0.44600001
-0.012042447 -0.026027223 0.44600001
-0.011265514 -0.026027223 0.44600001
-0.010465066 -0.025968866 0.44500002
-0.0096681006 -0.02591051 0.44400004
-0.0088946521 -0.02591051 0.44400004
-0.008066332 -0.025735438 0.44100001
-0.0072815605 -0.025677081 0.44000003
-0.0065002735 -0.025618725 0.43900001
-0.0057224706 -0.025560368 0.43800002
-0.0049594743 -0.025560368 0.43800002
-0.0041964781 -0.025560368 0.43800002
-0.0034334823 -0.025560368 0.43800002
-0.0026765831 -0.025618725 0.43900001
-0.0019118452 -0.025618725 0.43900001
-0.0011471071 -0.025618725 0.43900001
-0.00038324003 -0.025677081 0.44000003
0.00038411102 -0.025735438 0.44100001
0.0011523331 -0.025735438 0.44100001
0.0019249101 -0.025793796 0.44200003
0.0027070681 -0.02591051 0.44400004
0.0034805161 -0.02591051 0.44400004
0.0042635454 -0.025968866 0.44500002
0.0050500585 -0.026027223 0.44600001
0.0058269906 -0.026027223 0.44600001
0.0066187293 -0.02608558 0.44700003
0.0074139526 -0.026143938 0.44800001
0.0081943683 -0.026143938 0.44800001
0.0089948177 -0.026202295 0.44900003
0.009776976 -0.026202295 0.44900003
0.010582651 -0.026260652 0.45000002
0.01139181 -0.026319008 0.45100003
0.012204452 -0.026377365 0.45200002
0.012991837 -0.026377365 0.45200002
0.013840191 -0.02649408 0.45400003
0.014631059 -0.02649408 0.45400003
0.015421927 -0.02649408 0.45400003
0.016212795 -0.02649408 0.45400003
0.017003663 -0.02649408 0.45400003
-0.021234982 -0.026042901 0.46000001
-0.02038924 -0.025986286 0.45900002
-0.019546984 -0.025929671 0.45800003
-0.018749148 -0.025929671 0.45800003
-0.017951312 -0.025929671 0.45800003
-0.017116021 -0.025873058 0.45700002
-0.015523834 -0.025873058 0.45700002
-0.013657281 -0.025363522 0.44800001
-0.012876865 -0.025363522 0.44800001
-0.012042447 -0.025250291 0.44600001
-0.011265514 -0.025250291 0.44600001
-0.010465066 -0.025193676 0.44500002
-0.0096898759 -0.025193676 0.44500002
-0.0088946521 -0.025137061 0.44400004
-0.0080846222 -0.025023831 0.44200003
-0.0072815605 -0.024910601 0.44000003
-0.0065002735 -0.024853986 0.43900001
-0.0057224706 -0.024797371 0.43800002
-0.0049594743 -0.024797371 0.43800002
-0.004206059 -0.024853986 0.43900001
-0.0034413212 -0.024853986 0.43900001
-0.0026765831 -0.024853986 0.43900001
-0.0019118452 -0.024853986 0.43900001
-0.00114972 -0.024910601 0.44000003
-0.00038324003 -0.024910601 0.44000003
0.00038411102 -0.024967216 0.44100001
0.001154946 -0.025023831 0.44200003
0.0019336201 -0.025137061 0.44400004
0.0027070681 -0.025137061 0.44400004
0.0034883553 -0.025193676 0.44500002
0.0042731264 -0.025250291 0.44600001
0.0050613815 -0.025306907 0.44700003
0.0058400552 -0.025306907 0.44700003
0.0066335364 -0.025363522 0.44800001
0.0074139526 -0.025363522 0.44800001
0.0082126595 -0.025420137 0.44900003
0.0089948177 -0.025420137 0.44900003
0.0097987503 -0.025476752 0.45000002
0.010582651 -0.025476752 0.45000002
0.01139181 -0.025533367 0.45100003
0.012204452 -0.025589982 0.45200002
0.012991837 -0.025589982 0.45200002
0.013840191 -0.025703212 0.45400003
0.014631059 -0.025703212 0.45400003
0.015455896 -0.025759827 0.45500001
0.016248506 -0.025759827 0.45500001
-0.02038924 -0.025186708 0.45900002
-0.019546984 -0.025131835 0.45800003
-0.018749148 -0.025131835 0.45800003
-0.017951312 -0.025131835 0.45800003
-0.017116021 -0.025076963 0.45700002
-0.016319929 -0.025076963 0.45700002
-0.015523834 -0.025076963 0.45700002
-0.014663286 -0.024967216 0.45500001
-0.012876865 -0.024583105 0.44800001
-0.012069448 -0.024528233 0.44700003
-0.011265514 -0.02447336 0.44600001
-0.010488583 -0.02447336 0.44600001
-0.0096898759 -0.024418486 0.44500002
-0.0089146858 -0.024418486 0.44500002
-0.0081212046 -0.024363613 0.44400004
-0.0072981096 -0.024198994 0.44100001
-0.0065002735 -0.024089249 0.43900001
-0.0057224706 -0.024034375 0.43800002
-0.0049707973 -0.024089249 0.43900001
-0.004206059 -0.024089249 0.43900001
-0.0034413212 -0.024089249 0.43900001
-0.0026765831 -0.024089249 0.43900001
-0.0019162002 -0.024144122 0.44000003
-0.00114972 -0.024144122 0.44000003
-0.00038411102 -0.024198994 0.44100001
0.00038498204 -0.024253868 0.44200003
0.001154946 -0.024253868 0.44200003
0.0019336201 -0.024363613 0.44400004
0.0027131652 -0.024418486 0.44500002
0.0034883553 -0.024418486 0.44500002
0.0042731264 -0.02447336 0.44600001
0.0050613815 -0.024528233 0.44700003
0.0058531202 -0.024583105 0.44800001
0.0066335364 -0.024583105 0.44800001
0.0074305013 -0.024637979 0.44900003
0.0082126595 -0.024637979 0.44900003
0.0089948177 -0.024637979 0.44900003
0.0097987503 -0.024692852 0.45000002
0.010606168 -0.024747724 0.45100003
0.011417069 -0.024802597 0.45200002
0.012204452 -0.024802597 0.45200002
0.013049323 -0.024912344 0.45400003
0.013870676 -0.024967216 0.45500001
0.014663286 -0.024967216 0.45500001
0.015455896 -0.024967216 0.45500001
-0.020433661 -0.024440261 0.46000001
-0.019589663 -0.024387131 0.45900002
-0.018790085 -0.024387131 0.45900002
-0.017951312 -0.024334 0.45800003
-0.017116021 -0.024280868 0.45700002
-0.016319929 -0.024280868 0.45700002
-0.015455896 -0.024174606 0.45500001
-0.014663286 -0.024174606 0.45500001
-0.013840191 -0.024121476 0.45400003
-0.012876865 -0.02380269 0.44800001
-0.012096449 -0.02380269 0.44800001
-0.011290774 -0.023749558 0.44700003
-0.010488583 -0.023696428 0.44600001
-0.0097116502 -0.023696428 0.44600001
-0.0089146858 -0.023643296 0.44500002
-0.0081212046 -0.023590166 0.44400004
-0.0072815605 -0.023377642 0.44000003
-0.0065150806 -0.023377642 0.44000003
-0.0057355352 -0.02332451 0.43900001
-0.0049707973 -0.02332451 0.43900001
-0.004206059 -0.02332451 0.43900001
-0.0034413212 -0.02332451 0.43900001
-0.0026826803 -0.023377642 0.44000003
-0.0019162002 -0.023377642 0.44000003
-0.0011523331 -0.023430772 0.44100001
-0.00038498204 -0.023483904 0.44200003
0.00038498204 -0.023483904 0.44200003
0.001160172 -0.023590166 0.44400004
0.0019379752 -0.023643296 0.44500002
0.0027131652 -0.023643296 0.44500002
0.0034961943 -0.023696428 0.44600001
0.0042731264 -0.023696428 0.44600001
0.0050727045 -0.02380269 0.44800001
0.0058531202 -0.02380269 0.44800001
0.0066335364 -0.02380269 0.44800001
0.0074305013 -0.02385582 0.44900003
0.0082126595 -0.02385582 0.44900003
0.0090148505 -0.023908952 0.45000002
0.0098205255 -0.023962082 0.45100003
0.010629685 -0.024015214 0.45200002
0.011417069 -0.024015214 0.45200002
0.012258455 -0.024121476 0.45400003
0.013049323 -0.024121476 0.45400003
0.013870676 -0.024174606 0.45500001
0.014663286 -0.024174606 0.45500001
0.015489865 -0.024227738 0.45600003
-0.018831022 -0.023638941 0.46000001
-0.017951312 -0.023536164 0.45800003
-0.017116021 -0.023484774 0.45700002
-0.016319929 -0.023484774 0.45700002
-0.015455896 -0.023381997 0.45500001
-0.014631059 -0.023330608 0.45400003
-0.013840191 -0.023330608 0.45400003
-0.012876865 -0.023022274 0.44800001
-0.012096449 -0.023022274 0.44800001
-0.011316033 -0.023022274 0.44800001
-0.010488583 -0.022919495 0.44600001
-0.0097116502 -0.022919495 0.44600001
-0.0089146858 -0.022868106 0.44500002
-0.0081212046 -0.022816718 0.44400004
-0.0073312074 -0.022765329 0.44300002
-0.0065298872 -0.02266255 0.44100001
-0.0057486002 -0.022611162 0.44000003
-0.0049821204 -0.022611162 0.44000003
-0.0042156405 -0.022611162 0.44000003
-0.0034491601 -0.022611162 0.44000003
-0.0026826803 -0.022611162 0.44000003
-0.0019205551 -0.02266255 0.44100001
-0.001154946 -0.022713939 0.44200003
-0.00038498204 -0.022713939 0.44200003
0.00038672402 -0.022816718 0.44400004
0.0011627851 -0.022868106 0.44500002
0.0019379752 -0.022868106 0.44500002
0.0027192621 -0.022919495 0.44600001
0.0034961943 -0.022919495 0.44600001
0.0042731264 -0.022919495 0.44600001
0.0050727045 -0.023022274 0.44800001
0.0058661853 -0.023073662 0.44900003
0.0066483435 -0.023073662 0.44900003
0.0074305013 -0.023073662 0.44900003
0.0082309507 -0.023125051 0.45000002
0.0090348832 -0.023176441 0.45100003
0.0098205255 -0.023176441 0.45100003
0.010629685 -0.023227829 0.45200002
0.011467586 -0.023330608 0.45400003
0.012285456 -0.023381997 0.45500001
0.013078066 -0.023381997 0.45500001
0.013901161 -0.023433385 0.45600003
0.014695513 -0.023433385 0.45600003
0.015489865 -0.023433385 0.45600003
-0.018831022 -0.022837622 0.46000001
-0.017990505 -0.022787975 0.45900002
-0.017153475 -0.022738328 0.45800003
-0.016319929 -0.022688681 0.45700002
-0.015489865 -0.022639034 0.45600003
-0.014663286 -0.022589386 0.45500001
-0.013870676 -0.022589386 0.45500001
-0.012905608 -0.022291504 0.44900003
-0.01212345 -0.022291504 0.44900003
-0.011316033 -0.022241857 0.44800001
-0.0105121 -0.02219221 0.44700003
-0.0097116502 -0.022142563 0.44600001
-0.0089146858 -0.022092916 0.44500002
-0.0081212046 -0.022043269 0.44400004
-0.0073477565 -0.022043269 0.44400004
-0.0065446943 -0.021943975 0.44200003
-0.0057616653 -0.021894328 0.44100001
-0.0049934434 -0.021894328 0.44100001
-0.0042252215 -0.021894328 0.44100001
-0.0034569993 -0.021894328 0.44100001
-0.0026887772 -0.021894328 0.44100001
-0.0019249101 -0.021943975 0.44200003
-0.001154946 -0.021943975 0.44200003
-0.00038498204 -0.021943975 0.44200003
0.00038672402 -0.022043269 0.44400004
0.0011627851 -0.022092916 0.44500002
0.0019379752 -0.022092916 0.44500002
0.0027192621 -0.022142563 0.44600001
0.0034961943 -0.022142563 0.44600001
0.0042827073 -0.02219221 0.44700003
0.0050727045 -0.022241857 0.44800001
0.0058661853 -0.022291504 0.44900003
0.0066483435 -0.022291504 0.44900003
0.0074470504 -0.022341151 0.45000002
0.0082492419 -0.022390798 0.45100003
0.0090348832 -0.022390798 0.45100003
0.0098423008 -0.022440445 0.45200002
0.010676718 -0.022539739 0.45400003
0.011492846 -0.022589386 0.45500001
0.012285456 -0.022589386 0.45500001
0.013106809 -0.022639034 0.45600003
0.013901161 -0.022639034 0.45600003
0.01472774 -0.022688681 0.45700002
0.015523834 -0.022688681 0.45700002
-0.018831022 -0.022036301 0.46000001
-0.017990505 -0.021988396 0.45900002
-0.017153475 -0.021940492 0.45800003
-0.016319929 -0.021892587 0.45700002
-0.015523834 -0.021892587 0.45700002
-0.014663286 -0.021796776 0.45500001
-0.013870676 -0.021796776 0.45500001
-0.01302058 -0.021700967 0.45300001
-0.012096449 -0.021461442 0.44800001
-0.011316033 -0.021461442 0.44800001
-0.0105121 -0.021413537 0.44700003
-0.0097116502 -0.021365631 0.44600001
-0.0089146858 -0.021317726 0.44500002
-0.0081212046 -0.021269821 0.44400004
-0.0073477565 -0.021269821 0.44400004
-0.0065446943 -0.021174012 0.44200003
-0.0057747304 -0.021174012 0.44200003
-0.0050047664 -0.021174012 0.44200003
-0.0042348024 -0.021174012 0.44200003
-0.0034648383 -0.021174012 0.44200003
-0.0026948741 -0.021174012 0.44200003
-0.0019249101 -0.021174012 0.44200003
-0.001154946 -0.021174012 0.44200003
-0.00038585303 -0.021221917 0.44300002
0.00038672402 -0.021269821 0.44400004
0.0011627851 -0.021317726 0.44500002
0.0019423302 -0.021365631 0.44600001
0.0027192621 -0.021365631 0.44600001
0.0035040332 -0.021413537 0.44700003
0.0042922883 -0.021461442 0.44800001
0.0050840275 -0.021509346 0.44900003
0.0058661853 -0.021509346 0.44900003
0.0066483435 -0.021509346 0.44900003
0.0074635996 -0.021605156 0.45100003
0.0082492419 -0.021605156 0.45100003
0.0090549169 -0.021653062 0.45200002
0.009864076 -0.021700967 0.45300001
0.010676718 -0.021748871 0.45400003
0.011492846 -0.021796776 0.45500001
0.012312457 -0.021844681 0.45600003
0.013106809 -0.021844681 0.45600003
0.013931646 -0.021892587 0.45700002
0.01472774 -0.021892587 0.45700002
0.015523834 -0.021892587 0.45700002
-0.0254062 -0.021373471 0.46300003
-0.018831022 -0.021234982 0.46000001
-0.017990505 -0.021188818 0.45900002
-0.017153475 -0.021142656 0.45800003
-0.016355639 -0.021142656 0.45800003
-0.015523834 -0.021096492 0.45700002
-0.014695513 -0.021050328 0.45600003
-0.013840191 -0.020958003 0.45400003
-0.01302058 -0.020911841 0.45300001
-0.012204452 -0.020865677 0.45200002
-0.011366551 -0.020773351 0.45000002
-0.010559133 -0.020727187 0.44900003
-0.0097334255 -0.020634862 0.44700003
-0.0089146858 -0.020542536 0.44500002
-0.0081212046 -0.020496374 0.44400004
-0.0073477565 -0.020496374 0.44400004
-0.0065446943 -0.020404046 0.44200003
-0.0057747304 -0.020404046 0.44200003
-0.0050047664 -0.020404046 0.44200003
-0.0042348024 -0.020404046 0.44200003
-0.0034648383 -0.020404046 0.44200003
-0.0026948741 -0.020404046 0.44200003
-0.0019249101 -0.020404046 0.44200003
-0.0011575591 -0.02045021 0.44300002
-0.00038672402 -0.020496374 0.44400004
0.00038759504 -0.020542536 0.44500002
0.001165398 -0.0205887 0.44600001
0.0019423302 -0.0205887 0.44600001
0.0027192621 -0.0205887 0.44600001
0.0035040332 -0.020634862 0.44700003
0.0042922883 -0.020681025 0.44800001
0.0050840275 -0.020727187 0.44900003
0.0058661853 -0.020727187 0.44900003
0.0066631506 -0.020773351 0.45000002
0.0074635996 -0.020819515 0.45100003
0.0082675321 -0.020865677 0.45200002
0.0090949824 -0.020958003 0.45400003
0.0098858504 -0.020958003 0.45400003
0.010700236 -0.021004166 0.45500001
0.011518105 -0.021050328 0.45600003
0.012312457 -0.021050328 0.45600003
0.013135551 -0.021096492 0.45700002
0.013931646 -0.021096492 0.45700002
0.01472774 -0.021096492 0.45700002
0.015557803 -0.021142656 0.45800003
0.016355639 -0.021142656 0.45800003
-0.0254062 -0.020566924 0.46300003
-0.021511959 -0.020700186 0.46600002
-0.020655766 -0.020655766 0.46500003
-0.019845737 -0.020655766 0.46500003
-0.018871957 -0.020478083 0.46100003
-0.018029701 -0.020433661 0.46000001
-0.017153475 -0.02034482 0.45800003
-0.016319929 -0.020300398 0.45700002
-0.015523834 -0.020300398 0.45700002
-0.014695513 -0.020255977 0.45600003
-0.013840191 -0.020167135 0.45400003
-0.01302058 -0.020122714 0.45300001
-0.012204452 -0.020078294 0.45200002
-0.01139181 -0.020033872 0.45100003
-0.010559133 -0.019945031 0.44900003
-0.0097334255 -0.019856188 0.44700003
-0.0089347186 -0.019811768 0.44600001
-0.0081394957 -0.019767346 0.44500002
-0.0073477565 -0.019722925 0.44400004
-0.0065595014 -0.019678505 0.44300002
-0.0057877954 -0.019678505 0.44300002
-0.0050160894 -0.019678505 0.44300002
-0.0042443834 -0.019678505 0.44300002
-0.0034726772 -0.019678505 0.44300002
-0.0027009712 -0.019678505 0.44300002
-0.0019292651 -0.019678505 0.44300002
-0.001160172 -0.019722925 0.44400004
-0.00038672402 -0.019722925 0.44400004
0.00038759504 -0.019767346 0.44500002
0.001165398 -0.019811768 0.44600001
0.0019423302 -0.019811768 0.44600001
0.0027253593 -0.019856188 0.44700003
0.0035118721 -0.019900609 0.44800001
0.0042922883 -0.019900609 0.44800001
0.0050840275 -0.019945031 0.44900003
0.0058661853 -0.019945031 0.44900003
0.0066779573 -0.020033872 0.45100003
0.0074966974 -0.020122714 0.45300001
0.0082858233 -0.020122714 0.45300001
0.0090949824 -0.020167135 0.45400003
0.0099076256 -0.020211557 0.45500001
0.010723753 -0.020255977 0.45600003
0.011543363 -0.020300398 0.45700002
0.012339458 -0.020300398 0.45700002
0.013164295 -0.02034482 0.45800003
0.013962131 -0.02034482 0.45800003
0.014759967 -0.02034482 0.45800003
0.015557803 -0.02034482 0.45800003
0.01639135 -0.02038924 0.45900002
0.017190928 -0.02038924 0.45900002
0.018029701 -0.020433661 0.46000001
-0.026212746 -0.019760378 0.46300003
-0.0254062 -0.019760378 0.46300003
-0.024599655 -0.019760378 0.46300003
-0.023844497 -0.019803056 0.46400002
-0.023085857 -0.019845737 0.46500003
-0.022323731 -0.019888416 0.46600002
-0.021511959 -0.019888416 0.46600002
-0.020700186 -0.019888416 0.46600002
-0.019888416 -0.019888416 0.46600002
-0.018871957 -0.01967502 0.46100003
-0.018029701 -0.019632341 0.46000001
-0.017190928 -0.019589663 0.45900002
-0.016355639 -0.019546984 0.45800003
-0.015523834 -0.019504305 0.45700002
-0.014695513 -0.019461624 0.45600003
-0.013870676 -0.019418946 0.45500001
-0.013049323 -0.019376267 0.45400003
-0.012231453 -0.019333588 0.45300001
-0.011417069 -0.019290909 0.45200002
-0.010559133 -0.019162873 0.44900003
-0.009776976 -0.019162873 0.44900003
-0.0089347186 -0.019034835 0.44600001
-0.0081394957 -0.018992156 0.44500002
-0.0073477565 -0.018949477 0.44400004
-0.0065743085 -0.018949477 0.44400004
-0.0057877954 -0.018906798 0.44300002
-0.0050160894 -0.018906798 0.44300002
-0.0042443834 -0.018906798 0.44300002
-0.0034805161 -0.018949477 0.44400004
-0.0027070681 -0.018949477 0.44400004
-0.0019336201 -0.018949477 0.44400004
-0.001160172 -0.018949477 0.44400004
-0.00038759504 -0.018992156 0.44500002
0.00038759504 -0.018992156 0.44500002
0.001165398 -0.019034835 0.44600001
0.0019423302 -0.019034835 0.44600001
0.0027253593 -0.019077513 0.44700003
0.0035118721 -0.019120194 0.44800001
0.0043018693 -0.019162873 0.44900003
0.0050840275 -0.019162873 0.44900003
0.0058661853 -0.019162873 0.44900003
0.0066927643 -0.019290909 0.45200002
0.0074966974 -0.019333588 0.45300001
0.0083041145 -0.019376267 0.45400003
0.0090949824 -0.019376267 0.45400003
0.0099076256 -0.019418946 0.45500001
0.010723753 -0.019461624 0.45600003
0.011543363 -0.019504305 0.45700002
0.012339458 -0.019504305 0.45700002
0.013164295 -0.019546984 0.45800003
0.013962131 -0.019546984 0.45800003
0.014759967 -0.019546984 0.45800003
0.015591772 -0.019589663 0.45900002
0.016427061 -0.019632341 0.46000001
0.017228382 -0.019632341 0.46000001
0.018029701 -0.019632341 0.46000001
0.018831022 -0.019632341 0.46000001
-0.023135504 -0.019076644 0.46600002
-0.022323731 -0.019076644 0.46600002
-0.021511959 -0.019076644 0.46600002
-0.020700186 -0.019076644 0.46600002
-0.019845737 -0.019035706 0.46500003
-0.019076644 -0.019076644 0.46600002
-0.018068897 -0.018871957 0.46100003
-0.017228382 -0.018831022 0.46000001
-0.01639135 -0.018790085 0.45900002
-0.015557803 -0.018749148 0.45800003
-0.01472774 -0.01870821 0.45700002
-0.013870676 -0.018626336 0.45500001
-0.013049323 -0.018585399 0.45400003
-0.012231453 -0.018544462 0.45300001
-0.01139181 -0.018462589 0.45100003
-0.010582651 -0.018421652 0.45000002
-0.009776976 -0.018380715 0.44900003
-0.008974785 -0.018339777 0.44800001
-0.0081577869 -0.018257903 0.44600001
-0.0073477565 -0.018176029 0.44400004
-0.0065743085 -0.018176029 0.44400004
-0.0058008605 -0.018176029 0.44400004
-0.0050274124 -0.018176029 0.44400004
-0.0042539644 -0.018176029 0.44400004
-0.0034805161 -0.018176029 0.44400004
-0.0027070681 -0.018176029 0.44400004
-0.0019336201 -0.018176029 0.44400004
-0.001160172 -0.018176029 0.44400004
-0.00038759504 -0.018216966 0.44500002
0.00038846603 -0.018257903 0.44600001
0.001165398 -0.018257903 0.44600001
0.0019466851 -0.01829884 0.44700003
0.0027314562 -0.018339777 0.44800001
0.0035118721 -0.018339777 0.44800001
0.0043018693 -0.018380715 0.44900003
0.0051066731 -0.018462589 0.45100003
0.0059315106 -0.018585399 0.45400003
0.0067075714 -0.018544462 0.45300001
0.0075132465 -0.018585399 0.45400003
0.0083041145 -0.018585399 0.45400003
0.0091150152 -0.018626336 0.45500001
0.0099076256 -0.018626336 0.45500001
0.01074727 -0.01870821 0.45700002
0.011543363 -0.01870821 0.45700002
0.012366459 -0.018749148 0.45800003
0.013164295 -0.018749148 0.45800003
0.013992616 -0.018790085 0.45900002
0.014792194 -0.018790085 0.45900002
0.015591772 -0.018790085 0.45900002
0.016427061 -0.018831022 0.46000001
0.017228382 -0.018831022 0.46000001
0.018029701 -0.018831022 0.46000001
0.018831022 -0.018831022 0.46000001
0.019632341 -0.018831022 0.46000001
-0.022323731 -0.018264871 0.46600002
-0.021511959 -0.018264871 0.46600002
-0.020700186 -0.018264871 0.46600002
-0.019845737 -0.018225675 0.46500003
-0.019035706 -0.018225675 0.46500003
-0.018068897 -0.018068897 0.46100003
-0.017228382 -0.018029701 0.46000001
-0.016427061 -0.018029701 0.46000001
-0.015591772 -0.017990505 0.45900002
-0.014759967 -0.017951312 0.45800003
-0.013962131 -0.017951312 0.45800003
-0.013164295 -0.017951312 0.45800003
-0.012177452 -0.017676946 0.45100003
-0.011417069 -0.017716141 0.45200002
-0.010606168 -0.017676946 0.45100003
-0.009776976 -0.017598556 0.44900003
-0.0089948177 -0.017598556 0.44900003
-0.0081577869 -0.017480971 0.44600001
-0.0073643057 -0.017441776 0.44500002
-0.0065743085 -0.017402582 0.44400004
-0.0058008605 -0.017402582 0.44400004
-0.0050274124 -0.017402582 0.44400004
-0.0042539644 -0.017402582 0.44400004
-0.0034805161 -0.017402582 0.44400004
-0.0027070681 -0.017402582 0.44400004
-0.0019336201 -0.017402582 0.44400004
-0.0011627851 -0.017441776 0.44500002
-0.00038759504 -0.017441776 0.44500002
0.00038846603 -0.017480971 0.44600001
0.001165398 -0.017480971 0.44600001
0.0019466851 -0.017520167 0.44700003
0.0027314562 -0.017559361 0.44800001
0.0035197113 -0.017598556 0.44900003
0.0043114503 -0.017637752 0.45000002
0.0051179961 -0.017716141 0.45200002
0.0059315106 -0.017794531 0.45400003
0.0067223785 -0.017794531 0.45400003
0.0075132465 -0.017794531 0.45400003
0.0083041145 -0.017794531 0.45400003
0.0091150152 -0.017833726 0.45500001
0.0099294009 -0.01787292 0.45600003
0.01074727 -0.017912116 0.45700002
0.011568623 -0.017951312 0.45800003
0.012366459 -0.017951312 0.45800003
0.013164295 -0.017951312 0.45800003
0.013992616 -0.017990505 0.45900002
0.014792194 -0.017990505 0.45900002
0.015591772 -0.017990505 0.45900002
0.016427061 -0.018029701 0.46000001
0.017228382 -0.018029701 0.46000001
0.018029701 -0.018029701 0.46000001
0.018831022 -0.018029701 0.46000001
-0.022323731 -0.017453099 0.46600002
-0.021511959 -0.017453099 0.46600002
-0.020700186 -0.017453099 0.46600002
-0.019845737 -0.017415646 0.46500003
-0.019035706 -0.017415646 0.46500003
-0.018068897 -0.017265834 0.46100003
-0.017228382 -0.017228382 0.46000001
-0.016427061 -0.017228382 0.46000001
-0.015625741 -0.017228382 0.46000001
-0.014792194 -0.017190928 0.45900002
-0.013992616 -0.017190928 0.45900002
-0.013193037 -0.017190928 0.45900002
-0.012204452 -0.016928757 0.45200002
-0.01139181 -0.016891304 0.45100003
-0.010606168 -0.016891304 0.45100003
-0.0097987503 -0.01685385 0.45000002
-0.0090148505 -0.01685385 0.45000002
-0.0081943683 -0.016778946 0.44800001
-0.0073808543 -0.01670404 0.44600001
-0.0065891156 -0.016666586 0.44500002
-0.0058008605 -0.016629133 0.44400004
-0.0050274124 -0.016629133 0.44400004
-0.0042539644 -0.016629133 0.44400004
-0.0034805161 -0.016629133 0.44400004
-0.0027070681 -0.016629133 0.44400004
-0.0019379752 -0.016666586 0.44500002
-0.0011627851 -0.016666586 0.44500002
-0.00038846603 -0.01670404 0.44600001
0.00038846603 -0.01670404 0.44600001
0.001165398 -0.01670404 0.44600001
0.0019466851 -0.016741492 0.44700003
0.0027375531 -0.016816398 0.44900003
0.0035197113 -0.016816398 0.44900003
0.0043210313 -0.016891304 0.45100003
0.0051293192 -0.016966211 0.45300001
0.0059315106 -0.017003663 0.45400003
0.0067223785 -0.017003663 0.45400003
0.0075297956 -0.017041117 0.45500001
0.0083224056 -0.017041117 0.45500001
0.0091350488 -0.017078569 0.45600003
0.0099511752 -0.017116021 0.45700002
0.010770787 -0.017153475 0.45800003
0.011568623 -0.017153475 0.45800003
0.012366459 -0.017153475 0.45800003
0.013193037 -0.017190928 0.45900002
0.014023101 -0.017228382 0.46000001
0.014824421 -0.017228382 0.46000001
0.015625741 -0.017228382 0.46000001
0.016462771 -0.017265834 0.46100003
0.017265834 -0.017265834 0.46100003
0.018068897 -0.017265834 0.46100003
0.018871957 -0.017265834 0.46100003
-0.022323731 -0.016641326 0.46600002
-0.021511959 -0.016641326 0.46600002
-0.020700186 -0.016641326 0.46600002
-0.019845737 -0.016605616 0.46500003
-0.019035706 -0.016605616 0.46500003
-0.018147286 -0.016534194 0.46300003
-0.017265834 -0.016462771 0.46100003
-0.016462771 -0.016462771 0.46100003
-0.01565971 -0.016462771 0.46100003
-0.014824421 -0.016427061 0.46000001
-0.013992616 -0.01639135 0.45900002
-0.013164295 -0.016355639 0.45800003
-0.012258455 -0.016212795 0.45400003
-0.011417069 -0.016141374 0.45200002
-0.010606168 -0.016105661 0.45100003
-0.0098205255 -0.016105661 0.45100003
-0.0090148505 -0.016069951 0.45000002
-0.0081943683 -0.015998529 0.44800001
-0.0073974035 -0.015962819 0.44700003
-0.0066039222 -0.015927106 0.44600001
-0.0058139255 -0.015891396 0.44500002
-0.0050387355 -0.015891396 0.44500002
-0.0042635454 -0.015891396 0.44500002
-0.0034883553 -0.015891396 0.44500002
-0.0027131652 -0.015891396 0.44500002
-0.0019379752 -0.015891396 0.44500002
-0.001165398 -0.015927106 0.44600001
-0.00038846603 -0.015927106 0.44600001
0.00038846603 -0.015927106 0.44600001
0.0011680111 -0.015962819 0.44700003
0.0019510401 -0.015998529 0.44800001
0.0027375531 -0.01603424 0.44900003
0.0035353892 -0.016105661 0.45100003
0.0043306123 -0.016141374 0.45200002
0.0051406422 -0.016212795 0.45400003
0.0059315106 -0.016212795 0.45400003
0.0067223785 -0.016212795 0.45400003
0.0075297956 -0.016248506 0.45500001
0.0083224056 -0.016248506 0.45500001
0.0091550816 -0.016319929 0.45700002
0.0099511752 -0.016319929 0.45700002
0.010770787 -0.016355639 0.45800003
0.011568623 -0.016355639 0.45800003
0.01239346 -0.01639135 0.45900002
0.013193037 -0.01639135 0.45900002
0.014023101 -0.016427061 0.46000001
0.014824421 -0.016427061 0.46000001
0.01565971 -0.016462771 0.46100003
0.016462771 -0.016462771 0.46100003
0.017265834 -0.016462771 0.46100003
0.018068897 -0.016462771 0.46100003
0.018871957 -0.016462771 0.46100003
-0.021511959 -0.015829556 0.46600002
-0.020700186 -0.015829556 0.46600002
-0.019845737 -0.015795587 0.46500003
-0.019035706 -0.015795587 0.46500003
-0.018186482 -0.015761618 0.46400002
-0.01734074 -0.015727649 0.46300003
-0.016534194 -0.015727649 0.46300003
-0.01565971 -0.01565971 0.46100003
-0.014824421 -0.015625741 0.46000001
-0.013992616 -0.015591772 0.45900002
-0.013164295 -0.015557803 0.45800003
-0.012339458 -0.015523834 0.45700002
-0.011467586 -0.015421927 0.45400003
-0.010629685 -0.015353989 0.45200002
-0.0097987503 -0.015286051 0.45000002
-0.0089948177 -0.015252082 0.44900003
-0.0081943683 -0.015218113 0.44800001
-0.0073974035 -0.015184144 0.44700003
-0.0066039222 -0.015150174 0.44600001
-0.0058269906 -0.015150174 0.44600001
-0.0050387355 -0.015116206 0.44500002
-0.0042635454 -0.015116206 0.44500002
-0.0034883553 -0.015116206 0.44500002
-0.0027131652 -0.015116206 0.44500002
-0.0019423302 -0.015150174 0.44600001
-0.001165398 -0.015150174 0.44600001
-0.00038846603 -0.015150174 0.44600001
0.00038933702 -0.015184144 0.44700003
0.001170624 -0.015218113 0.44800001
0.0019510401 -0.015218113 0.44800001
0.0027497471 -0.01532002 0.45100003
0.0035432281 -0.015353989 0.45200002
0.0043306123 -0.015353989 0.45200002
0.0051406422 -0.015421927 0.45400003
0.0059315106 -0.015421927 0.45400003
0.0067223785 -0.015421927 0.45400003
0.0075297956 -0.015455896 0.45500001
0.0083406968 -0.015489865 0.45600003
0.0091550816 -0.015523834 0.45700002
0.0099729504 -0.015557803 0.45800003
0.010770787 -0.015557803 0.45800003
0.011568623 -0.015557803 0.45800003
0.01239346 -0.015591772 0.45900002
0.013221781 -0.015625741 0.46000001
0.014023101 -0.015625741 0.46000001
0.014856648 -0.01565971 0.46100003
0.01565971 -0.01565971 0.46100003
0.016462771 -0.01565971 0.46100003
0.017303288 -0.015693679 0.46200001
0.01810809 -0.015693679 0.46200001
0.018871957 -0.01565971 0.46100003
-0.020700186 -0.015017783 0.46600002
-0.019888416 -0.015017783 0.46600002
-0.019035706 -0.014985556 0.46500003
-0.018225675 -0.014985556 0.46500003
-0.01734074 -0.014921102 0.46300003
-0.016534194 -0.014921102 0.46300003
-0.01565971 -0.014856648 0.46100003
-0.014824421 -0.014824421 0.46000001
-0.014023101 -0.014824421 0.46000001
-0.013193037 -0.014792194 0.45900002
-0.012366459 -0.014759967 0.45800003
-0.011492846 -0.014663286 0.45500001
-0.010653201 -0.014598832 0.45300001
-0.0098205255 -0.014534377 0.45100003
-0.0089948177 -0.014469923 0.44900003
-0.0081943683 -0.014437697 0.44800001
-0.0074139526 -0.014437697 0.44800001
-0.0066187293 -0.01440547 0.44700003
-0.0058269906 -0.014373243 0.44600001
-0.0050500585 -0.014373243 0.44600001
-0.0042731264 -0.014373243 0.44600001
-0.0034961943 -0.014373243 0.44600001
-0.0027192621 -0.014373243 0.44600001
-0.0019423302 -0.014373243 0.44600001
-0.001165398 -0.014373243 0.44600001
-0.00038933702 -0.01440547 0.44700003
0.00039020804 -0.014437697 0.44800001
0.001170624 -0.014437697 0.44800001
0.0019553951 -0.014469923 0.44900003
0.0027497471 -0.014534377 0.45100003
0.0035432281 -0.014566605 0.45200002
0.0043401932 -0.014598832 0.45300001
0.0051406422 -0.014631059 0.45400003
0.0059315106 -0.014631059 0.45400003
0.0067371856 -0.014663286 0.45500001
0.0075463443 -0.014695513 0.45600003
0.008358988 -0.01472774 0.45700002
0.0091751143 -0.014759967 0.45800003
0.0099729504 -0.014759967 0.45800003
0.010770787 -0.014759967 0.45800003
0.011593882 -0.014792194 0.45900002
0.01239346 -0.014792194 0.45900002
0.013221781 -0.014824421 0.46000001
0.014053586 -0.014856648 0.46100003
0.014856648 -0.014856648 0.46100003
0.015693679 -0.014888875 0.46200001
0.016498484 -0.014888875 0.46200001
0.01734074 -0.014921102 0.46300003
0.018147286 -0.014921102 0.46300003
-0.020700186 -0.014206011 0.46600002
-0.019888416 -0.014206011 0.46600002
-0.019076644 -0.014206011 0.46600002
-0.018225675 -0.014175526 0.46500003
-0.01734074 -0.014114556 0.46300003
-0.016534194 -0.014114556 0.46300003
-0.015693679 -0.014084071 0.46200001
-0.014824421 -0.014023101 0.46000001
-0.013992616 -0.013992616 0.45900002
-0.013193037 -0.013992616 0.45900002
-0.012366459 -0.013962131 0.45800003
-0.011518105 -0.013901161 0.45600003
-0.010676718 -0.013840191 0.45400003
-0.0098423008 -0.013779221 0.45200002
-0.0090348832 -0.013748736 0.45100003
-0.0082126595 -0.013687766 0.44900003
-0.0074139526 -0.013657281 0.44800001
-0.0066335364 -0.013657281 0.44800001
-0.0058400552 -0.013626796 0.44700003
-0.0050500585 -0.013596311 0.44600001
-0.0042731264 -0.013596311 0.44600001
-0.0034961943 -0.013596311 0.44600001
-0.0027192621 -0.013596311 0.44600001
-0.0019423302 -0.013596311 0.44600001
-0.0011680111 -0.013626796 0.44700003
-0.00039020804 -0.013657281 0.44800001
0.00039020804 -0.013657281 0.44800001
0.0011732371 -0.013687766 0.44900003
0.0019597502 -0.013718251 0.45000002
0.0027497471 -0.013748736 0.45100003
0.0035510673 -0.013809706 0.45300001
0.0043401932 -0.013809706 0.45300001
0.0051406422 -0.013840191 0.45400003
0.0059445752 -0.013870676 0.45500001
0.0067519923 -0.013901161 0.45600003
0.0075628934 -0.013931646 0.45700002
0.008358988 -0.013931646 0.45700002
0.0091751143 -0.013962131 0.45800003
0.0099729504 -0.013962131 0.45800003
0.010794303 -0.013992616 0.45900002
0.011593882 -0.013992616 0.45900002
0.012420461 -0.014023101 0.46000001
0.013250524 -0.014053586 0.46100003
0.014084071 -0.014084071 0.46200001
0.014921102 -0.014114556 0.46300003
0.015727649 -0.014114556 0.46300003
0.016534194 -0.014114556 0.46300003
0.01734074 -0.014114556 0.46300003
0.018147286 -0.014114556 0.46300003
-0.019888416 -0.013394238 0.46600002
-0.019076644 -0.013394238 0.46600002
-0.018225675 -0.013365496 0.46500003
-0.01734074 -0.01330801 0.46300003
-0.016534194 -0.01330801 0.46300003
-0.015693679 -0.013279267 0.46200001
-0.014856648 -0.013250524 0.46100003
-0.013992616 -0.013193037 0.45900002
-0.013193037 -0.013193037 0.45900002
-0.012366459 -0.013164295 0.45800003
-0.011543363 -0.013135551 0.45700002
-0.010676718 -0.013049323 0.45400003
-0.009864076 -0.01302058 0.45300001
-0.0090348832 -0.012963094 0.45100003
-0.0082126595 -0.012905608 0.44900003
-0.0074305013 -0.012905608 0.44900003
-0.0066335364 -0.012876865 0.44800001
-0.0058531202 -0.012876865 0.44800001
-0.0050727045 -0.012876865 0.44800001
-0.0042922883 -0.012876865 0.44800001
-0.0035118721 -0.012876865 0.44800001
-0.0027314562 -0.012876865 0.44800001
-0.0019510401 -0.012876865 0.44800001
-0.001170624 -0.012876865 0.44800001
-0.00039107903 -0.012905608 0.44900003
0.00039107903 -0.012905608 0.44900003
0.0011784631 -0.012963094 0.45100003
0.0019684602 -0.012991837 0.45200002
0.0027619412 -0.01302058 0.45300001
0.0035510673 -0.01302058 0.45300001
0.0043497742 -0.013049323 0.45400003
0.0051519652 -0.013078066 0.45500001
0.0059445752 -0.013078066 0.45500001
0.0067667994 -0.013135551 0.45700002
0.0075628934 -0.013135551 0.45700002
0.0083772782 -0.013164295 0.45800003
0.0091751143 -0.013164295 0.45800003
0.0099729504 -0.013164295 0.45800003
0.010794303 -0.013193037 0.45900002
0.01161914 -0.013221781 0.46000001
0.012420461 -0.013221781 0.46000001
0.013250524 -0.013250524 0.46100003
0.014114556 -0.01330801 0.46300003
0.014921102 -0.01330801 0.46300003
0.015727649 -0.01330801 0.46300003
0.016534194 -0.01330801 0.46300003
0.01734074 -0.01330801 0.46300003
0.018147286 -0.01330801 0.46300003
-0.019240391 -0.012690471 0.47000003
-0.018147286 -0.012501464 0.46300003
-0.01734074 -0.012501464 0.46300003
-0.016534194 -0.012501464 0.46300003
-0.015693679 -0.012474462 0.46200001
-0.014856648 -0.012447461 0.46100003
-0.013992616 -0.01239346 0.45900002
-0.013164295 -0.012366459 0.45800003
-0.012366459 -0.012366459 0.45800003
-0.011543363 -0.012339458 0.45700002
-0.010700236 -0.012285456 0.45500001
-0.0098858504 -0.012258455 0.45400003
-0.0090549169 -0.012204452 0.45200002
-0.0082309507 -0.012150451 0.45000002
-0.0074305013 -0.01212345 0.44900003
-0.0066483435 -0.01212345 0.44900003
-0.0058661853 -0.01212345 0.44900003
-0.0050727045 -0.012096449 0.44800001
-0.0042922883 -0.012096449 0.44800001
-0.0035118721 -0.012096449 0.44800001
-0.0027375531 -0.01212345 0.44900003
-0.0019553951 -0.01212345 0.44900003
-0.0011732371 -0.01212345 0.44900003
-0.00039107903 -0.01212345 0.44900003
0.00039282104 -0.012177452 0.45100003
0.0011784631 -0.012177452 0.45100003
0.0019684602 -0.012204452 0.45200002
0.0027619412 -0.012231453 0.45300001
0.0035589063 -0.012258455 0.45400003
0.0043497742 -0.012258455 0.45400003
0.0051519652 -0.012285456 0.45500001
0.0059707053 -0.012339458 0.45700002
0.0067667994 -0.012339458 0.45700002
0.0075794426 -0.012366459 0.45800003
0.0083772782 -0.012366459 0.45800003
0.0091751143 -0.012366459 0.45800003
0.0099947257 -0.01239346 0.45900002
0.010817821 -0.012420461 0.46000001
