# .PCD v0.7 - Point Cloud Data file format
VERSION 0.7
FIELDS x y z
SIZE 4 4 4
TYPE F F F
COUNT 1 1 1
WIDTH 1335
HEIGHT 1
VIEWPOINT 0 0 0 1 0 0 0
POINTS 1335
DATA ascii
0.062320054 -0.053697154 0.45000002
0.063103952 -0.053697154 0.45000002
0.064029828 -0.053816479 0.45100003
0.064815469 -0.053816479 0.45100003
0.06560111 -0.053816479 0.45100003
0.066386752 -0.053816479 0.45100003
0.067023456 -0.053697154 0.45000002
0.067807354 -0.053697154 0.45000002
0.068591252 -0.053697154 0.45000002
0.069375157 -0.053697154 0.45000002
0.070003144 -0.053577825 0.44900003
0.070942953 -0.053697154 0.45000002
0.071726851 -0.053697154 0.45000002
0.072510757 -0.053697154 0.45000002
0.073457532 -0.053816479 0.45100003
0.074243173 -0.053816479 0.45100003
0.075028814 -0.053816479 0.45100003
0.075814456 -0.053816479 0.45100003
0.076600097 -0.053816479 0.45100003
0.077385738 -0.053816479 0.45100003
0.078171387 -0.053816479 0.45100003
0.078957029 -0.053816479 0.45100003
0.07991948 -0.053935807 0.45200002
0.080706865 -0.053935807 0.45200002
0.081494249 -0.053935807 0.45200002
0.082281634 -0.053935807 0.45200002
0.083069019 -0.053935807 0.45200002
0.083856404 -0.053935807 0.45200002
0.084831052 -0.054055136 0.45300001
0.085809186 -0.05417446 0.45400003
0.08660005 -0.05417446 0.45400003
0.087390922 -0.05417446 0.45400003
0.088181786 -0.05417446 0.45400003
0.089168631 -0.054293789 0.45500001
0.089961238 -0.054293789 0.45500001
0.090753853 -0.054293789 0.45500001
0.091546461 -0.054293789 0.45500001
0.092339069 -0.054293789 0.45500001
0.093131684 -0.054293789 0.45500001
0.093924291 -0.054293789 0.45500001
0.028137656 -0.053501178 0.45500001
0.028739518 -0.053148422 0.45200002
0.029526902 -0.053148422 0.45200002
0.030314285 -0.053148422 0.45200002
0.03103286 -0.053030837 0.45100003
0.031818502 -0.053030837 0.45100003
0.032604147 -0.053030837 0.45100003
0.033241715 -0.052795667 0.44900003
0.033948097 -0.052678082 0.44800001
0.034728516 -0.052678082 0.44800001
0.035508931 -0.052678082 0.44800001
0.036208343 -0.052560497 0.44700003
0.036987018 -0.052560497 0.44700003
0.037681203 -0.052442912 0.44600001
0.038458135 -0.052442912 0.44600001
0.039235067 -0.052442912 0.44600001
0.040101714 -0.052560497 0.44700003
0.040880386 -0.052560497 0.44700003
0.041659061 -0.052560497 0.44700003
0.042437736 -0.052560497 0.44700003
0.043216411 -0.052560497 0.44700003
0.043995082 -0.052560497 0.44700003
0.044873923 -0.052678082 0.44800001
0.045654338 -0.052678082 0.44800001
0.046434756 -0.052678082 0.44800001
0.047320563 -0.052795667 0.44900003
0.048102722 -0.052795667 0.44900003
0.04888488 -0.052795667 0.44900003
0.049667034 -0.052795667 0.44900003
0.050449193 -0.052795667 0.44900003
0.051231351 -0.052795667 0.44900003
0.052013509 -0.052795667 0.44900003
0.052795667 -0.052795667 0.44900003
0.053458501 -0.052678082 0.44800001
0.054238915 -0.052678082 0.44800001
0.05501933 -0.052678082 0.44800001
0.055799749 -0.052678082 0.44800001
0.056580164 -0.052678082 0.44800001
0.057360578 -0.052678082 0.44800001
0.058140997 -0.052678082 0.44800001
0.058921412 -0.052678082 0.44800001
0.059835091 -0.052795667 0.44900003
0.060617249 -0.052795667 0.44900003
0.061399408 -0.052795667 0.44900003
0.062181566 -0.052795667 0.44900003
0.062963724 -0.052795667 0.44900003
0.063745879 -0.052795667 0.44900003
0.064528041 -0.052795667 0.44900003
0.065310195 -0.052795667 0.44900003
0.065945156 -0.052678082 0.44800001
0.066725574 -0.052678082 0.44800001
0.067505985 -0.052678082 0.44800001
0.068286404 -0.052678082 0.44800001
0.06922099 -0.052795667 0.44900003
0.070003144 -0.052795667 0.44900003
0.070785306 -0.052795667 0.44900003
0.071567461 -0.052795667 0.44900003
0.072349623 -0.052795667 0.44900003
0.073294654 -0.052913252 0.45000002
0.074078552 -0.052913252 0.45000002
0.074862458 -0.052913252 0.45000002
0.075814456 -0.053030837 0.45100003
0.076600097 -0.053030837 0.45100003
0.077385738 -0.053030837 0.45100003
0.078171387 -0.053030837 0.45100003
0.078957029 -0.053030837 0.45100003
0.07991948 -0.053148422 0.45200002
0.080706865 -0.053148422 0.45200002
0.081494249 -0.053148422 0.45200002
0.082281634 -0.053148422 0.45200002
0.083069019 -0.053148422 0.45200002
0.083856404 -0.053148422 0.45200002
0.084831052 -0.053266007 0.45300001
0.085809186 -0.053383593 0.45400003
0.08660005 -0.053383593 0.45400003
0.087390922 -0.053383593 0.45400003
0.088376023 -0.053501178 0.45500001
0.089168631 -0.053501178 0.45500001
0.089961238 -0.053501178 0.45500001
0.090753853 -0.053501178 0.45500001
0.091747664 -0.053618763 0.45600003
0.092339069 -0.053501178 0.45500001
0.093336366 -0.053618763 0.45600003
0.094130717 -0.053618763 0.45600003
0.028803101 -0.052476883 0.45300001
0.029526902 -0.052361038 0.45200002
0.033167683 -0.051897667 0.44800001
0.033948097 -0.051897667 0.44800001
0.034650996 -0.051781826 0.44700003
0.035429668 -0.051781826 0.44700003
0.03612734 -0.05166598 0.44600001
0.036904272 -0.05166598 0.44600001
0.037681203 -0.05166598 0.44600001
0.038371906 -0.051550139 0.44500002
0.039147098 -0.051550139 0.44500002
0.039922286 -0.051550139 0.44500002
0.040788934 -0.05166598 0.44600001
0.041565865 -0.05166598 0.44600001
0.042342797 -0.05166598 0.44600001
0.043119729 -0.05166598 0.44600001
0.04389666 -0.05166598 0.44600001
0.044673592 -0.05166598 0.44600001
0.045450523 -0.05166598 0.44600001
0.046227455 -0.05166598 0.44600001
0.047109779 -0.051781826 0.44700003
0.047781322 -0.05166598 0.44600001
0.048667129 -0.051781826 0.44700003
0.049335185 -0.05166598 0.44600001
0.050224476 -0.051781826 0.44700003
0.051003151 -0.051781826 0.44700003
0.051897667 -0.051897667 0.44800001
0.052678082 -0.051897667 0.44800001
0.053339172 -0.051781826 0.44700003
0.054117847 -0.051781826 0.44700003
0.05501933 -0.051897667 0.44800001
0.055799749 -0.051897667 0.44800001
0.056580164 -0.051897667 0.44800001
0.057360578 -0.051897667 0.44800001
0.058140997 -0.051897667 0.44800001
0.058921412 -0.051897667 0.44800001
0.059701826 -0.051897667 0.44800001
0.060482245 -0.051897667 0.44800001
0.06126266 -0.051897667 0.44800001
0.062043075 -0.051897667 0.44800001
0.062683262 -0.051781826 0.44700003
0.063319959 -0.05166598 0.44600001
0.064384326 -0.051897667 0.44800001
0.065164737 -0.051897667 0.44800001
0.065797955 -0.051781826 0.44700003
0.066725574 -0.051897667 0.44800001
0.067505985 -0.051897667 0.44800001
0.068286404 -0.051897667 0.44800001
0.069066823 -0.051897667 0.44800001
0.069847234 -0.051897667 0.44800001
0.070785306 -0.052013509 0.44900003
0.071567461 -0.052013509 0.44900003
0.072349623 -0.052013509 0.44900003
0.073131777 -0.052013509 0.44900003
0.073913939 -0.052013509 0.44900003
0.074862458 -0.052129354 0.45000002
0.075646356 -0.052129354 0.45000002
0.076430254 -0.052129354 0.45000002
0.077385738 -0.052245196 0.45100003
0.078171387 -0.052245196 0.45100003
0.078957029 -0.052245196 0.45100003
0.07991948 -0.052361038 0.45200002
0.080706865 -0.052361038 0.45200002
0.081494249 -0.052361038 0.45200002
0.082281634 -0.052361038 0.45200002
0.083069019 -0.052361038 0.45200002
0.084041923 -0.052476883 0.45300001
0.085018314 -0.052592725 0.45400003
0.085809186 -0.052592725 0.45400003
0.08660005 -0.052592725 0.45400003
0.087583408 -0.05270857 0.45500001
0.088376023 -0.05270857 0.45500001
0.089168631 -0.05270857 0.45500001
0.089961238 -0.05270857 0.45500001
0.090953313 -0.052824412 0.45600003
0.091948859 -0.052940253 0.45700002
0.033872321 -0.051003151 0.44700003
0.034573477 -0.050889049 0.44600001
0.035350408 -0.050889049 0.44600001
0.03612734 -0.050889049 0.44600001
0.036821526 -0.050774947 0.44500002
0.037596717 -0.050774947 0.44500002
0.038371906 -0.050774947 0.44500002
0.039147098 -0.050774947 0.44500002
0.039922286 -0.050774947 0.44500002
0.040697478 -0.050774947 0.44500002
0.041472666 -0.050774947 0.44500002
0.042247858 -0.050774947 0.44500002
0.043023046 -0.050774947 0.44500002
0.043798238 -0.050774947 0.44500002
0.044573426 -0.050774947 0.44500002
0.045348618 -0.050774947 0.44500002
0.046123806 -0.050774947 0.44500002
0.046898998 -0.050774947 0.44500002
0.047674187 -0.050774947 0.44500002
0.048449378 -0.050774947 0.44500002
0.049224567 -0.050774947 0.44500002
0.049999759 -0.050774947 0.44500002
0.050774947 -0.050774947 0.44500002
0.05166598 -0.050889049 0.44600001
0.052442912 -0.050889049 0.44600001
0.053219844 -0.050889049 0.44600001
0.053996779 -0.050889049 0.44600001
0.054896519 -0.051003151 0.44700003
0.055675194 -0.051003151 0.44700003
0.056453869 -0.051003151 0.44700003
0.057232544 -0.051003151 0.44700003
0.058011215 -0.051003151 0.44700003
0.058658369 -0.050889049 0.44600001
0.059568565 -0.051003151 0.44700003
0.060212232 -0.050889049 0.44600001
0.060989168 -0.050889049 0.44600001
0.061766099 -0.050889049 0.44600001
0.062543027 -0.050889049 0.44600001
0.063319959 -0.050889049 0.44600001
0.06409689 -0.050889049 0.44600001
0.064873829 -0.050889049 0.44600001
0.065650761 -0.050889049 0.44600001
0.06657663 -0.051003151 0.44700003
0.067355305 -0.051003151 0.44700003
0.06813398 -0.051003151 0.44700003
0.069066823 -0.051117253 0.44800001
0.069847234 -0.051117253 0.44800001
0.070627652 -0.051117253 0.44800001
0.071408071 -0.051117253 0.44800001
0.072188482 -0.051117253 0.44800001
0.073131777 -0.051231351 0.44900003
0.073913939 -0.051231351 0.44900003
0.074696094 -0.051231351 0.44900003
0.075646356 -0.051345453 0.45000002
0.076430254 -0.051345453 0.45000002
0.077385738 -0.051459555 0.45100003
0.078171387 -0.051459555 0.45100003
0.078957029 -0.051459555 0.45100003
0.07991948 -0.051573656 0.45200002
0.080706865 -0.051573656 0.45200002
0.081494249 -0.051573656 0.45200002
0.082281634 -0.051573656 0.45200002
0.083252795 -0.051687755 0.45300001
0.08422745 -0.051801857 0.45400003
0.085018314 -0.051801857 0.45400003
0.085809186 -0.051801857 0.45400003
0.0867908 -0.051915959 0.45500001
0.087583408 -0.051915959 0.45500001
0.088376023 -0.051915959 0.45500001
0.089168631 -0.051915959 0.45500001
0.089961238 -0.051915959 0.45500001
0.091152772 -0.052144159 0.45700002
0.091948859 -0.052144159 0.45700002
0.033796545 -0.050112117 0.44600001
0.034573477 -0.050112117 0.44600001
0.035350408 -0.050112117 0.44600001
0.036046337 -0.049999759 0.44500002
0.036821526 -0.049999759 0.44500002
0.037596717 -0.049999759 0.44500002
0.038371906 -0.049999759 0.44500002
0.039147098 -0.049999759 0.44500002
0.039922286 -0.049999759 0.44500002
0.040697478 -0.049999759 0.44500002
0.041472666 -0.049999759 0.44500002
0.042247858 -0.049999759 0.44500002
0.043023046 -0.049999759 0.44500002
0.043798238 -0.049999759 0.44500002
0.044573426 -0.049999759 0.44500002
0.045246709 -0.0498874 0.44400004
0.046020158 -0.0498874 0.44400004
0.046898998 -0.049999759 0.44500002
0.047567055 -0.0498874 0.44400004
0.048340503 -0.0498874 0.44400004
0.049113952 -0.0498874 0.44400004
0.0498874 -0.0498874 0.44400004
0.050660849 -0.0498874 0.44400004
0.051550139 -0.049999759 0.44500002
0.052325327 -0.049999759 0.44500002
0.053100519 -0.049999759 0.44500002
0.053996779 -0.050112117 0.44600001
0.054773711 -0.050112117 0.44600001
0.055550642 -0.050112117 0.44600001
0.056327574 -0.050112117 0.44600001
0.057104506 -0.050112117 0.44600001
0.057881437 -0.050112117 0.44600001
0.058658369 -0.050112117 0.44600001
0.059435301 -0.050112117 0.44600001
0.060212232 -0.050112117 0.44600001
0.06085242 -0.049999759 0.44500002
0.061627608 -0.049999759 0.44500002
0.0624028 -0.049999759 0.44500002
0.063177988 -0.049999759 0.44500002
0.063953176 -0.049999759 0.44500002
0.064873829 -0.050112117 0.44600001
0.065650761 -0.050112117 0.44600001
0.066427693 -0.050112117 0.44600001
0.067204624 -0.050112117 0.44600001
0.06813398 -0.050224476 0.44700003
0.068912655 -0.050224476 0.44700003
0.06969133 -0.050224476 0.44700003
0.070627652 -0.050336834 0.44800001
0.071408071 -0.050336834 0.44800001
0.072188482 -0.050336834 0.44800001
0.073131777 -0.050449193 0.44900003
0.073913939 -0.050449193 0.44900003
0.074696094 -0.050449193 0.44900003
0.075646356 -0.050561555 0.45000002
0.076430254 -0.050561555 0.45000002
0.077385738 -0.050673913 0.45100003
0.078171387 -0.050673913 0.45100003
0.078957029 -0.050673913 0.45100003
0.07991948 -0.050786272 0.45200002
0.080706865 -0.050786272 0.45200002
0.081674546 -0.05089863 0.45300001
0.082645714 -0.051010989 0.45400003
0.083436579 -0.051010989 0.45400003
0.08422745 -0.051010989 0.45400003
0.085018314 -0.051010989 0.45400003
0.085998192 -0.051123347 0.45500001
0.0867908 -0.051123347 0.45500001
0.087775901 -0.051235706 0.45600003
0.088764489 -0.051348068 0.45700002
0.089560583 -0.051348068 0.45700002
0.090356678 -0.051348068 0.45700002
0.033796545 -0.049335185 0.44600001
0.034573477 -0.049335185 0.44600001
0.035271145 -0.049224567 0.44500002
0.036046337 -0.049224567 0.44500002
0.036821526 -0.049224567 0.44500002
0.037512232 -0.049113952 0.44400004
0.03828568 -0.049113952 0.44400004
0.039059125 -0.049113952 0.44400004
0.039832573 -0.049113952 0.44400004
0.040606022 -0.049113952 0.44400004
0.04137947 -0.049113952 0.44400004
0.042152919 -0.049113952 0.44400004
0.042926367 -0.049113952 0.44400004
0.043699816 -0.049113952 0.44400004
0.044473264 -0.049113952 0.44400004
0.045246709 -0.049113952 0.44400004
0.045916509 -0.049003333 0.44300002
0.046793606 -0.049113952 0.44400004
0.047567055 -0.049113952 0.44400004
0.048340503 -0.049113952 0.44400004
0.049113952 -0.049113952 0.44400004
0.0498874 -0.049113952 0.44400004
0.050546747 -0.049003333 0.44300002
0.051434293 -0.049113952 0.44400004
0.052207742 -0.049113952 0.44400004
0.05298119 -0.049113952 0.44400004
0.053633571 -0.049003333 0.44300002
0.054773711 -0.049335185 0.44600001
0.055176981 -0.049003333 0.44300002
0.056074984 -0.049113952 0.44400004
0.057104506 -0.049335185 0.44600001
0.057751659 -0.049224567 0.44500002
0.058526848 -0.049224567 0.44500002
0.059302039 -0.049224567 0.44500002
0.060077228 -0.049224567 0.44500002
0.06085242 -0.049224567 0.44500002
0.061627608 -0.049224567 0.44500002
0.0624028 -0.049224567 0.44500002
0.063177988 -0.049224567 0.44500002
0.063953176 -0.049224567 0.44500002
0.064728372 -0.049224567 0.44500002
0.065650761 -0.049335185 0.44600001
0.066427693 -0.049335185 0.44600001
0.067204624 -0.049335185 0.44600001
0.067981556 -0.049335185 0.44600001
0.068912655 -0.0494458 0.44700003
0.06969133 -0.0494458 0.44700003
0.070627652 -0.049556419 0.44800001
0.071408071 -0.049556419 0.44800001
0.072188482 -0.049556419 0.44800001
0.073131777 -0.049667034 0.44900003
0.073913939 -0.049667034 0.44900003
0.074862458 -0.049777653 0.45000002
0.075646356 -0.049777653 0.45000002
0.076600097 -0.049888272 0.45100003
0.077385738 -0.049888272 0.45100003
0.078171387 -0.049888272 0.45100003
0.078957029 -0.049888272 0.45100003
0.07991948 -0.049998887 0.45200002
0.080885418 -0.050109506 0.45300001
0.081854843 -0.050220121 0.45400003
0.082645714 -0.050220121 0.45400003
0.083436579 -0.050220121 0.45400003
0.08441297 -0.050330739 0.45500001
0.085205577 -0.050330739 0.45500001
0.086187199 -0.050441355 0.45600003
0.08698155 -0.050441355 0.45600003
0.087968394 -0.050551973 0.45700002
0.088764489 -0.050551973 0.45700002
0.089756556 -0.050662588 0.45800003
0.090554394 -0.050662588 0.45800003
0.034495957 -0.048449378 0.44500002
0.035271145 -0.048449378 0.44500002
0.035965335 -0.048340503 0.44400004
0.036738783 -0.048340503 0.44400004
0.037427742 -0.048231628 0.44300002
0.038113222 -0.048122752 0.44200003
0.038883183 -0.048122752 0.44200003
0.039653149 -0.048122752 0.44200003
0.040423114 -0.048122752 0.44200003
0.041286275 -0.048231628 0.44300002
0.042152919 -0.048340503 0.44400004
0.042829685 -0.048231628 0.44300002
0.043699816 -0.048340503 0.44400004
0.044373099 -0.048231628 0.44300002
0.045042899 -0.048122752 0.44200003
0.04581286 -0.048122752 0.44200003
0.046688218 -0.048231628 0.44300002
0.047352787 -0.048122752 0.44200003
0.048231628 -0.048231628 0.44300002
0.049003333 -0.048231628 0.44300002
0.049662679 -0.048122752 0.44200003
0.050432645 -0.048122752 0.44200003
0.05120261 -0.048122752 0.44200003
0.051972572 -0.048122752 0.44200003
0.052742537 -0.048122752 0.44200003
0.053512502 -0.048122752 0.44200003
0.054405276 -0.048231628 0.44300002
0.055052429 -0.048122752 0.44200003
0.055822395 -0.048122752 0.44200003
0.056592356 -0.048122752 0.44200003
0.057621881 -0.048340503 0.44400004
0.058395326 -0.048340503 0.44400004
0.059302039 -0.048449378 0.44500002
0.060077228 -0.048449378 0.44500002
0.06085242 -0.048449378 0.44500002
0.061627608 -0.048449378 0.44500002
0.0624028 -0.048449378 0.44500002
0.063177988 -0.048449378 0.44500002
0.063953176 -0.048449378 0.44500002
0.064728372 -0.048449378 0.44500002
0.06550356 -0.048449378 0.44500002
0.066427693 -0.048558254 0.44600001
0.067204624 -0.048558254 0.44600001
0.067981556 -0.048558254 0.44600001
0.068758488 -0.048558254 0.44600001
0.06969133 -0.048667129 0.44700003
0.070627652 -0.048776004 0.44800001
0.071408071 -0.048776004 0.44800001
0.072188482 -0.048776004 0.44800001
0.073131777 -0.04888488 0.44900003
0.074078552 -0.048993751 0.45000002
0.075028814 -0.049102627 0.45100003
0.075814456 -0.049102627 0.45100003
0.076600097 -0.049102627 0.45100003
0.077557325 -0.049211502 0.45200002
0.07834471 -0.049211502 0.45200002
0.079132095 -0.049211502 0.45200002
0.080096297 -0.049320377 0.45300001
0.081063978 -0.049429253 0.45400003
0.081854843 -0.049429253 0.45400003
0.082827747 -0.049538128 0.45500001
0.083620362 -0.049538128 0.45500001
0.08441297 -0.049538128 0.45500001
0.085205577 -0.049538128 0.45500001
0.086187199 -0.049647003 0.45600003
0.0871723 -0.049755879 0.45700002
0.087968394 -0.049755879 0.45700002
0.088958718 -0.049864754 0.45800003
0.089756556 -0.049864754 0.45800003
0.09075211 -0.049973629 0.45900002
0.034495957 -0.047674187 0.44500002
0.035191886 -0.047567055 0.44400004
0.035965335 -0.047567055 0.44400004
0.036738783 -0.047567055 0.44400004
0.037343256 -0.047352787 0.44200003
0.038113222 -0.047352787 0.44200003
0.038883183 -0.047352787 0.44200003
0.039563436 -0.047245655 0.44100001
0.040331658 -0.047245655 0.44100001
0.04109988 -0.047245655 0.44100001
0.041773163 -0.047138523 0.44000003
0.042636324 -0.047245655 0.44100001
0.043404546 -0.047245655 0.44100001
0.044272933 -0.047352787 0.44200003
0.045042899 -0.047352787 0.44200003
0.045709211 -0.047245655 0.44100001
0.046582825 -0.047352787 0.44200003
0.047352787 -0.047352787 0.44200003
0.048122752 -0.047352787 0.44200003
0.048892718 -0.047352787 0.44200003
0.049662679 -0.047352787 0.44200003
0.050432645 -0.047352787 0.44200003
0.051086765 -0.047245655 0.44100001
0.051972572 -0.047352787 0.44200003
0.052742537 -0.047352787 0.44200003
0.053512502 -0.047352787 0.44200003
0.054282464 -0.047352787 0.44200003
0.055052429 -0.047352787 0.44200003
0.055822395 -0.047352787 0.44200003
0.056592356 -0.047352787 0.44200003
0.0574921 -0.047459923 0.44300002
0.058395326 -0.047567055 0.44400004
0.059168775 -0.047567055 0.44400004
0.060077228 -0.047674187 0.44500002
0.060715672 -0.047567055 0.44400004
0.061627608 -0.047674187 0.44500002
0.0624028 -0.047674187 0.44500002
0.063177988 -0.047674187 0.44500002
0.063953176 -0.047674187 0.44500002
0.064728372 -0.047674187 0.44500002
0.06550356 -0.047674187 0.44500002
0.066427693 -0.047781322 0.44600001
0.067204624 -0.047781322 0.44600001
0.067981556 -0.047781322 0.44600001
0.068912655 -0.047888454 0.44700003
0.069847234 -0.047995586 0.44800001
0.070627652 -0.047995586 0.44800001
0.071408071 -0.047995586 0.44800001
0.072349623 -0.048102722 0.44900003
0.073294654 -0.048209853 0.45000002
0.074243173 -0.048316985 0.45100003
0.075028814 -0.048316985 0.45100003
0.075814456 -0.048316985 0.45100003
0.076769948 -0.048424117 0.45200002
0.077557325 -0.048424117 0.45200002
0.07834471 -0.048424117 0.45200002
0.079307169 -0.048531253 0.45300001
0.080273107 -0.048638385 0.45400003
0.081063978 -0.048638385 0.45400003
0.082035139 -0.048745517 0.45500001
0.082827747 -0.048745517 0.45500001
0.083620362 -0.048745517 0.45500001
0.08441297 -0.048745517 0.45500001
0.085392848 -0.048852652 0.45600003
0.086376205 -0.048959784 0.45700002
0.087363049 -0.049066916 0.45800003
0.08816088 -0.049066916 0.45800003
0.089152955 -0.049174052 0.45900002
0.089952528 -0.049174052 0.45900002
0.033720765 -0.046898998 0.44500002
0.034495957 -0.046898998 0.44500002
0.035191886 -0.046793606 0.44400004
0.035965335 -0.046793606 0.44400004
0.036656037 -0.046688218 0.44300002
0.037343256 -0.046582825 0.44200003
0.038026992 -0.046477433 0.44100001
0.038795214 -0.046477433 0.44100001
0.039473724 -0.046372041 0.44000003
0.040240202 -0.046372041 0.44000003
0.041006684 -0.046372041 0.44000003
0.041773163 -0.046372041 0.44000003
0.042442963 -0.046266653 0.43900001
0.043207701 -0.046266653 0.43900001
0.043972436 -0.046266653 0.43900001
0.044737175 -0.046266653 0.43900001
0.045501914 -0.046266653 0.43900001
0.046372041 -0.046372041 0.44000003
0.047138523 -0.046372041 0.44000003
0.048013877 -0.046477433 0.44100001
0.048782099 -0.046477433 0.44100001
0.049550321 -0.046477433 0.44100001
0.050318543 -0.046477433 0.44100001
0.051086765 -0.046477433 0.44100001
0.051854987 -0.046477433 0.44100001
0.052623209 -0.046477433 0.44100001
0.053391431 -0.046477433 0.44100001
0.054159656 -0.046477433 0.44100001
0.055052429 -0.046582825 0.44200003
0.055822395 -0.046582825 0.44200003
0.056592356 -0.046582825 0.44200003
0.057362322 -0.046582825 0.44200003
0.058263808 -0.046688218 0.44300002
0.059168775 -0.046793606 0.44400004
0.059942223 -0.046793606 0.44400004
0.060715672 -0.046793606 0.44400004
0.061627608 -0.046898998 0.44500002
0.0624028 -0.046898998 0.44500002
0.063177988 -0.046898998 0.44500002
0.063953176 -0.046898998 0.44500002
0.064728372 -0.046898998 0.44500002
0.06550356 -0.046898998 0.44500002
0.066427693 -0.047004391 0.44600001
0.067204624 -0.047004391 0.44600001
0.067981556 -0.047004391 0.44600001
0.068912655 -0.047109779 0.44700003
0.069847234 -0.047215171 0.44800001
0.070627652 -0.047215171 0.44800001
0.071567461 -0.047320563 0.44900003
0.072510757 -0.047425952 0.45000002
0.073294654 -0.047425952 0.45000002
0.074243173 -0.047531344 0.45100003
0.075028814 -0.047531344 0.45100003
0.075982563 -0.047636736 0.45200002
0.076769948 -0.047636736 0.45200002
0.077557325 -0.047636736 0.45200002
0.07851804 -0.047742125 0.45300001
0.079482242 -0.047847517 0.45400003
0.080449916 -0.047952909 0.45500001
0.081242532 -0.047952909 0.45500001
0.082035139 -0.047952909 0.45500001
0.082827747 -0.047952909 0.45500001
0.083804138 -0.048058297 0.45600003
0.084598497 -0.048058297 0.45600003
0.085580111 -0.04816369 0.45700002
0.086565211 -0.048269082 0.45800003
0.087363049 -0.048269082 0.45800003
0.088353373 -0.04837447 0.45900002
0.089347184 -0.048479863 0.46000001
0.089952528 -0.04837447 0.45900002
0.09075211 -0.04837447 0.45900002
0.034495957 -0.046123806 0.44500002
0.035191886 -0.046020158 0.44400004
0.035965335 -0.046020158 0.44400004
0.036656037 -0.045916509 0.44300002
0.03725877 -0.045709211 0.44100001
0.038026992 -0.045709211 0.44100001
0.038707241 -0.045605563 0.44000003
0.039473724 -0.045605563 0.44000003
0.040148746 -0.045501914 0.43900001
0.040913485 -0.045501914 0.43900001
0.041678224 -0.045501914 0.43900001
0.04234628 -0.045398265 0.43800002
0.043010853 -0.045294616 0.43700001
0.043772109 -0.045294616 0.43700001
0.04463527 -0.045398265 0.43800002
0.045398265 -0.045398265 0.43800002
0.046266653 -0.045501914 0.43900001
0.047031391 -0.045501914 0.43900001
0.047796126 -0.045501914 0.43900001
0.048560865 -0.045501914 0.43900001
0.049437962 -0.045605563 0.44000003
0.050204445 -0.045605563 0.44000003
0.051086765 -0.045709211 0.44100001
0.051854987 -0.045709211 0.44100001
0.052623209 -0.045709211 0.44100001
0.053391431 -0.045709211 0.44100001
0.054159656 -0.045709211 0.44100001
0.055052429 -0.04581286 0.44200003
0.055822395 -0.04581286 0.44200003
0.056592356 -0.04581286 0.44200003
0.057362322 -0.04581286 0.44200003
0.058132287 -0.04581286 0.44200003
0.059035514 -0.045916509 0.44300002
0.059942223 -0.046020158 0.44400004
0.060715672 -0.046020158 0.44400004
0.06148912 -0.046020158 0.44400004
0.0624028 -0.046123806 0.44500002
0.063177988 -0.046123806 0.44500002
0.063953176 -0.046123806 0.44500002
0.064728372 -0.046123806 0.44500002
0.065650761 -0.046227455 0.44600001
0.066427693 -0.046227455 0.44600001
0.067204624 -0.046227455 0.44600001
0.068286404 -0.046434756 0.44800001
0.069066823 -0.046434756 0.44800001
0.070003144 -0.046538405 0.44900003
0.070785306 -0.046538405 0.44900003
0.071726851 -0.046642054 0.45000002
0.072510757 -0.046642054 0.45000002
0.073457532 -0.046745703 0.45100003
0.074243173 -0.046745703 0.45100003
0.075195178 -0.046849351 0.45200002
0.075982563 -0.046849351 0.45200002
0.076769948 -0.046849351 0.45200002
0.077728912 -0.046953 0.45300001
0.078691371 -0.047056649 0.45400003
0.079657309 -0.047160298 0.45500001
0.080626734 -0.047263946 0.45600003
0.081421085 -0.047263946 0.45600003
0.082395732 -0.047367595 0.45700002
0.083191827 -0.047367595 0.45700002
0.083987921 -0.047367595 0.45700002
0.084784016 -0.047367595 0.45700002
0.085580111 -0.047367595 0.45700002
0.086565211 -0.047471244 0.45800003
0.087553799 -0.047574893 0.45900002
0.088545866 -0.047678541 0.46000001
0.089347184 -0.047678541 0.46000001
0.090148509 -0.047678541 0.46000001
0.090949826 -0.047678541 0.46000001
0.034573477 -0.045450523 0.44600001
0.035271145 -0.045348618 0.44500002
0.036046337 -0.045348618 0.44500002
0.036656037 -0.045144804 0.44300002
0.03725877 -0.044940989 0.44100001
0.037940763 -0.044839084 0.44000003
0.038707241 -0.044839084 0.44000003
0.039384011 -0.044737175 0.43900001
0.040148746 -0.044737175 0.43900001
0.040820289 -0.04463527 0.43800002
0.041488346 -0.044533361 0.43700001
0.042249601 -0.044533361 0.43700001
0.043010853 -0.044533361 0.43700001
0.043772109 -0.044533361 0.43700001
0.044533361 -0.044533361 0.43700001
0.045398265 -0.04463527 0.43800002
0.046266653 -0.044737175 0.43900001
0.047031391 -0.044737175 0.43900001
0.047796126 -0.044737175 0.43900001
0.048560865 -0.044737175 0.43900001
0.049325604 -0.044737175 0.43900001
0.050204445 -0.044839084 0.44000003
0.050970923 -0.044839084 0.44000003
0.051854987 -0.044940989 0.44100001
0.052623209 -0.044940989 0.44100001
0.053391431 -0.044940989 0.44100001
0.054159656 -0.044940989 0.44100001
0.055052429 -0.045042899 0.44200003
0.055822395 -0.045042899 0.44200003
0.056592356 -0.045042899 0.44200003
0.057362322 -0.045042899 0.44200003
0.058263808 -0.045144804 0.44300002
0.059168775 -0.045246709 0.44400004
0.059942223 -0.045246709 0.44400004
0.060715672 -0.045246709 0.44400004
0.061627608 -0.045348618 0.44500002
0.0624028 -0.045348618 0.44500002
0.063177988 -0.045348618 0.44500002
0.063953176 -0.045348618 0.44500002
0.064873829 -0.045450523 0.44600001
0.065650761 -0.045450523 0.44600001
0.066427693 -0.045450523 0.44600001
0.067355305 -0.045552433 0.44700003
0.068286404 -0.045654338 0.44800001
0.06922099 -0.045756247 0.44900003
0.070003144 -0.045756247 0.44900003
0.070942953 -0.045858152 0.45000002
0.071886249 -0.045960061 0.45100003
0.07267189 -0.045960061 0.45100003
0.073620409 -0.046061967 0.45200002
0.074407794 -0.046061967 0.45200002
0.075361535 -0.046163876 0.45300001
0.076150663 -0.046163876 0.45300001
0.077109635 -0.046265781 0.45400003
0.077900507 -0.046265781 0.45400003
0.079038031 -0.046469595 0.45600003
0.079832383 -0.046469595 0.45600003
0.080803543 -0.046571501 0.45700002
0.081599638 -0.046571501 0.45700002
0.082395732 -0.046571501 0.45700002
0.083191827 -0.046571501 0.45700002
0.083987921 -0.046571501 0.45700002
0.084784016 -0.046571501 0.45700002
0.085767373 -0.04667341 0.45800003
0.086754218 -0.046775315 0.45900002
0.087744549 -0.046877224 0.46000001
0.088545866 -0.046877224 0.46000001
0.089347184 -0.046877224 0.46000001
0.090148509 -0.046877224 0.46000001
0.090949826 -0.046877224 0.46000001
0.091950603 -0.046979129 0.46100003
0.092753664 -0.046979129 0.46100003
0.033796545 -0.044673592 0.44600001
0.034573477 -0.044673592 0.44600001
0.035350408 -0.044673592 0.44600001
0.03612734 -0.044673592 0.44600001
0.036407802 -0.044072602 0.44000003
0.037174281 -0.044072602 0.44000003
0.037940763 -0.044072602 0.44000003
0.038619272 -0.043972436 0.43900001
0.039384011 -0.043972436 0.43900001
0.040057294 -0.043872274 0.43800002
0.040820289 -0.043872274 0.43800002
0.041488346 -0.043772109 0.43700001
0.042249601 -0.043772109 0.43700001
0.042912431 -0.043671943 0.43600002
0.043772109 -0.043772109 0.43700001
0.044533361 -0.043772109 0.43700001
0.045294616 -0.043772109 0.43700001
0.04616126 -0.043872274 0.43800002
0.047031391 -0.043972436 0.43900001
0.047796126 -0.043972436 0.43900001
0.048560865 -0.043972436 0.43900001
0.049325604 -0.043972436 0.43900001
0.050204445 -0.044072602 0.44000003
0.050970923 -0.044072602 0.44000003
0.051737402 -0.044072602 0.44000003
0.052623209 -0.044172768 0.44100001
0.053391431 -0.044172768 0.44100001
0.054159656 -0.044172768 0.44100001
0.055052429 -0.044272933 0.44200003
0.055822395 -0.044272933 0.44200003
0.056592356 -0.044272933 0.44200003
0.057362322 -0.044272933 0.44200003
0.058263808 -0.044373099 0.44300002
0.059168775 -0.044473264 0.44400004
0.059942223 -0.044473264 0.44400004
0.060715672 -0.044473264 0.44400004
0.061627608 -0.044573426 0.44500002
0.0624028 -0.044573426 0.44500002
0.063177988 -0.044573426 0.44500002
0.06409689 -0.044673592 0.44600001
0.064873829 -0.044673592 0.44600001
0.065797955 -0.044773757 0.44700003
0.066725574 -0.044873923 0.44800001
0.067505985 -0.044873923 0.44800001
0.068438828 -0.044974089 0.44900003
0.06922099 -0.044974089 0.44900003
0.070159055 -0.045074254 0.45000002
0.071100608 -0.045174416 0.45100003
0.072045639 -0.045274582 0.45200002
0.072833024 -0.045274582 0.45200002
0.073620409 -0.045274582 0.45200002
0.074572414 -0.045374747 0.45300001
0.075527899 -0.045474913 0.45400003
0.076318763 -0.045474913 0.45400003
0.077109635 -0.045474913 0.45400003
0.078072093 -0.045575079 0.45500001
0.079038031 -0.045675244 0.45600003
0.079832383 -0.045675244 0.45600003
0.080803543 -0.045775406 0.45700002
0.081599638 -0.045775406 0.45700002
0.082395732 -0.045775406 0.45700002
0.083191827 -0.045775406 0.45700002
0.083987921 -0.045775406 0.45700002
0.084969543 -0.045875572 0.45800003
0.085767373 -0.045875572 0.45800003
0.086943224 -0.046075903 0.46000001
0.087744549 -0.046075903 0.46000001
0.08873836 -0.046176068 0.46100003
0.08954142 -0.046176068 0.46100003
0.090344481 -0.046176068 0.46100003
0.091147542 -0.046176068 0.46100003
0.091950603 -0.046176068 0.46100003
0.092753664 -0.046176068 0.46100003
0.033872321 -0.043995082 0.44700003
0.034573477 -0.04389666 0.44600001
0.035429668 -0.043995082 0.44700003
0.03612734 -0.04389666 0.44600001
0.036904272 -0.04389666 0.44600001
0.037174281 -0.043306123 0.44000003
0.037940763 -0.043306123 0.44000003
0.038619272 -0.043207701 0.43900001
0.039384011 -0.043207701 0.43900001
0.040057294 -0.043109275 0.43800002
0.04072709 -0.043010853 0.43700001
0.041488346 -0.043010853 0.43700001
0.042152919 -0.042912431 0.43600002
0.042912431 -0.042912431 0.43600002
0.043671943 -0.042912431 0.43600002
0.044533361 -0.043010853 0.43700001
0.045294616 -0.043010853 0.43700001
0.04616126 -0.043109275 0.43800002
0.047031391 -0.043207701 0.43900001
0.047796126 -0.043207701 0.43900001
0.048560865 -0.043207701 0.43900001
0.049325604 -0.043207701 0.43900001
0.050204445 -0.043306123 0.44000003
0.050970923 -0.043306123 0.44000003
0.051854987 -0.043404546 0.44100001
0.052623209 -0.043404546 0.44100001
0.053391431 -0.043404546 0.44100001
0.054159656 -0.043404546 0.44100001
0.055052429 -0.043502968 0.44200003
0.055822395 -0.043502968 0.44200003
0.056592356 -0.043502968 0.44200003
0.0574921 -0.04360139 0.44300002
0.058263808 -0.04360139 0.44300002
0.059168775 -0.043699816 0.44400004
0.059942223 -0.043699816 0.44400004
0.06085242 -0.043798238 0.44500002
0.061627608 -0.043798238 0.44500002
0.0624028 -0.043798238 0.44500002
0.063319959 -0.04389666 0.44600001
0.06409689 -0.04389666 0.44600001
0.06501928 -0.043995082 0.44700003
0.065945156 -0.044093508 0.44800001
0.066725574 -0.044093508 0.44800001
0.067656673 -0.04419193 0.44900003
0.068591252 -0.044290353 0.45000002
0.069375157 -0.044290353 0.45000002
0.070314966 -0.044388775 0.45100003
0.071258254 -0.044487197 0.45200002
0.072045639 -0.044487197 0.45200002
0.072833024 -0.044487197 0.45200002
0.073783286 -0.044585623 0.45300001
0.074737027 -0.044684045 0.45400003
0.075527899 -0.044684045 0.45400003
0.076318763 -0.044684045 0.45400003
0.077279478 -0.044782467 0.45500001
0.078072093 -0.044782467 0.45500001
0.079038031 -0.044880889 0.45600003
0.080007449 -0.044979315 0.45700002
0.080803543 -0.044979315 0.45700002
0.081599638 -0.044979315 0.45700002
0.082395732 -0.044979315 0.45700002
0.083191827 -0.044979315 0.45700002
0.084171705 -0.045077737 0.45800003
0.084969543 -0.045077737 0.45800003
0.086141907 -0.045274582 0.46000001
0.08713223 -0.045373008 0.46100003
0.087935291 -0.045373008 0.46100003
0.08873836 -0.045373008 0.46100003
0.08954142 -0.045373008 0.46100003
0.090344481 -0.045373008 0.46100003
0.091147542 -0.045373008 0.46100003
0.033872321 -0.043216411 0.44700003
0.034650996 -0.043216411 0.44700003
0.035429668 -0.043216411 0.44700003
0.036208343 -0.043216411 0.44700003
0.036904272 -0.043119729 0.44600001
0.037681203 -0.043119729 0.44600001
0.037940763 -0.042539641 0.44000003
0.038619272 -0.042442963 0.43900001
0.039294295 -0.04234628 0.43800002
0.039965838 -0.042249601 0.43700001
0.04072709 -0.042249601 0.43700001
0.041393407 -0.042152919 0.43600002
0.042152919 -0.042152919 0.43600002
0.042912431 -0.042152919 0.43600002
0.043671943 -0.042152919 0.43600002
0.044431455 -0.042152919 0.43600002
0.045294616 -0.042249601 0.43700001
0.04616126 -0.04234628 0.43800002
0.047031391 -0.042442963 0.43900001
0.047796126 -0.042442963 0.43900001
0.048560865 -0.042442963 0.43900001
0.049325604 -0.042442963 0.43900001
0.050204445 -0.042539641 0.44000003
0.050970923 -0.042539641 0.44000003
0.051854987 -0.042636324 0.44100001
0.052623209 -0.042636324 0.44100001
0.053391431 -0.042636324 0.44100001
0.054282464 -0.042733006 0.44200003
0.055052429 -0.042733006 0.44200003
0.055822395 -0.042733006 0.44200003
0.056720395 -0.042829685 0.44300002
0.0574921 -0.042829685 0.44300002
0.058395326 -0.042926367 0.44400004
0.059168775 -0.042926367 0.44400004
0.060077228 -0.043023046 0.44500002
0.06085242 -0.043023046 0.44500002
0.061766099 -0.043119729 0.44600001
0.062543027 -0.043119729 0.44600001
0.063461937 -0.043216411 0.44700003
0.064384326 -0.04331309 0.44800001
0.065164737 -0.04331309 0.44800001
0.065945156 -0.04331309 0.44800001
0.066874512 -0.043409772 0.44900003
0.067958035 -0.043603133 0.45100003
0.068743676 -0.043603133 0.45100003
0.069529325 -0.043603133 0.45100003
0.07047087 -0.043699816 0.45200002
0.071415909 -0.043796495 0.45300001
0.072205037 -0.043796495 0.45300001
0.073155291 -0.043893177 0.45400003
0.073946163 -0.043893177 0.45400003
0.074737027 -0.043893177 0.45400003
0.075527899 -0.043893177 0.45400003
0.076318763 -0.043893177 0.45400003
0.077279478 -0.04398986 0.45500001
0.07824368 -0.044086538 0.45600003
0.079211354 -0.044183221 0.45700002
0.080007449 -0.044183221 0.45700002
0.080803543 -0.044183221 0.45700002
0.081599638 -0.044183221 0.45700002
0.082576029 -0.044279899 0.45800003
0.083373867 -0.044279899 0.45800003
0.084171705 -0.044279899 0.45800003
0.085155062 -0.044376582 0.45900002
0.086141907 -0.044473264 0.46000001
0.08713223 -0.044569943 0.46100003
0.088126041 -0.044666626 0.46200001
0.088930845 -0.044666626 0.46200001
0.08973565 -0.044666626 0.46200001
0.090540454 -0.044666626 0.46200001
0.091345258 -0.044666626 0.46200001
0.033948097 -0.042532675 0.44800001
0.034650996 -0.042437736 0.44700003
0.035429668 -0.042437736 0.44700003
0.036208343 -0.042437736 0.44700003
0.036987018 -0.042437736 0.44700003
0.037765693 -0.042437736 0.44700003
0.038544364 -0.042437736 0.44700003
0.038443331 -0.041488346 0.43700001
0.039204583 -0.041488346 0.43700001
0.039965838 -0.041488346 0.43700001
0.040633895 -0.041393407 0.43600002
0.041393407 -0.041393407 0.43600002
0.042152919 -0.041393407 0.43600002
0.042912431 -0.041393407 0.43600002
0.043671943 -0.041393407 0.43600002
0.044431455 -0.041393407 0.43600002
0.045294616 -0.041488346 0.43700001
0.046055868 -0.041488346 0.43700001
0.046924256 -0.041583285 0.43800002
0.047796126 -0.041678224 0.43900001
0.048671484 -0.041773163 0.44000003
0.049437962 -0.041773163 0.44000003
0.050204445 -0.041773163 0.44000003
0.051086765 -0.041868102 0.44100001
0.051854987 -0.041868102 0.44100001
0.052623209 -0.041868102 0.44100001
0.053391431 -0.041868102 0.44100001
0.054282464 -0.041963041 0.44200003
0.055176981 -0.04205798 0.44300002
0.056074984 -0.042152919 0.44400004
0.056848433 -0.042152919 0.44400004
0.057621881 -0.042152919 0.44400004
0.058395326 -0.042152919 0.44400004
0.059302039 -0.042247858 0.44500002
0.060077228 -0.042247858 0.44500002
0.060989168 -0.042342797 0.44600001
0.061766099 -0.042342797 0.44600001
0.062683262 -0.042437736 0.44700003
0.063603908 -0.042532675 0.44800001
0.064384326 -0.042532675 0.44800001
0.065164737 -0.042532675 0.44800001
0.066092357 -0.042627614 0.44900003
0.067023456 -0.042722553 0.45000002
0.067958035 -0.042817492 0.45100003
0.068743676 -0.042817492 0.45100003
0.069529325 -0.042817492 0.45100003
0.07047087 -0.042912431 0.45200002
0.071573555 -0.043102309 0.45400003
0.072364427 -0.043102309 0.45400003
0.073155291 -0.043102309 0.45400003
0.073946163 -0.043102309 0.45400003
0.074901648 -0.043197248 0.45500001
0.075694263 -0.043197248 0.45500001
0.076486871 -0.043197248 0.45500001
0.077449322 -0.043292187 0.45600003
0.078415267 -0.043387126 0.45700002
0.079211354 -0.043387126 0.45700002
0.080007449 -0.043387126 0.45700002
0.080803543 -0.043387126 0.45700002
0.081778198 -0.043482065 0.45800003
0.082576029 -0.043482065 0.45800003
0.083373867 -0.043482065 0.45800003
0.084539264 -0.043671943 0.46000001
0.085340582 -0.043671943 0.46000001
0.086516432 -0.043861821 0.46200001
0.087510243 -0.04395676 0.46300003
0.088316791 -0.04395676 0.46300003
0.089123338 -0.04395676 0.46300003
0.089929886 -0.04395676 0.46300003
0.090736434 -0.04395676 0.46300003
0.091542974 -0.04395676 0.46300003
0.036987018 -0.041659061 0.44700003
0.037765693 -0.041659061 0.44700003
0.0385313 -0.040820289 0.43800002
0.039294295 -0.040820289 0.43800002
0.039965838 -0.04072709 0.43700001
0.040633895 -0.040633895 0.43600002
0.041393407 -0.040633895 0.43600002
0.042152919 -0.040633895 0.43600002
0.042912431 -0.040633895 0.43600002
0.043671943 -0.040633895 0.43600002
0.044431455 -0.040633895 0.43600002
0.045294616 -0.04072709 0.43700001
0.046055868 -0.04072709 0.43700001
0.047031391 -0.040913485 0.43900001
0.047796126 -0.040913485 0.43900001
0.048671484 -0.041006684 0.44000003
0.049437962 -0.041006684 0.44000003
0.050318543 -0.04109988 0.44100001
0.051086765 -0.04109988 0.44100001
0.051854987 -0.04109988 0.44100001
0.052742537 -0.041193075 0.44200003
0.053512502 -0.041193075 0.44200003
0.054405276 -0.041286275 0.44300002
0.055301536 -0.04137947 0.44400004
0.056074984 -0.04137947 0.44400004
0.056976467 -0.041472666 0.44500002
0.057751659 -0.041472666 0.44500002
0.058526848 -0.041472666 0.44500002
0.059435301 -0.041565865 0.44600001
0.060212232 -0.041565865 0.44600001
0.061125912 -0.041659061 0.44700003
0.061904587 -0.041659061 0.44700003
0.062823489 -0.04175226 0.44800001
0.063603908 -0.04175226 0.44800001
0.064528041 -0.041845456 0.44900003
0.065310195 -0.041845456 0.44900003
0.066239551 -0.041938651 0.45000002
0.067172393 -0.042031851 0.45100003
0.068108723 -0.042125046 0.45200002
0.068743676 -0.042031851 0.45100003
0.069683485 -0.042125046 0.45200002
0.070782691 -0.042311441 0.45400003
0.071573555 -0.042311441 0.45400003
0.072364427 -0.042311441 0.45400003
0.073316433 -0.042404637 0.45500001
0.07410904 -0.042404637 0.45500001
0.074901648 -0.042404637 0.45500001
0.075694263 -0.042404637 0.45500001
0.076486871 -0.042404637 0.45500001
0.077619173 -0.042591032 0.45700002
0.078415267 -0.042591032 0.45700002
0.079211354 -0.042591032 0.45700002
0.080182523 -0.042684227 0.45800003
0.080980361 -0.042684227 0.45800003
0.081778198 -0.042684227 0.45800003
0.082576029 -0.042684227 0.45800003
0.083555907 -0.042777427 0.45900002
0.084539264 -0.042870622 0.46000001
0.085526109 -0.042963821 0.46100003
0.086703703 -0.043150213 0.46300003
0.087510243 -0.043150213 0.46300003
0.088316791 -0.043150213 0.46300003
0.089123338 -0.043150213 0.46300003
0.089929886 -0.043150213 0.46300003
0.090736434 -0.043150213 0.46300003
0.091542974 -0.043150213 0.46300003
0.037069764 -0.040971842 0.44800001
0.037850179 -0.040971842 0.44800001
0.038443331 -0.039965838 0.43700001
0.039204583 -0.039965838 0.43700001
0.039965838 -0.039965838 0.43700001
0.04072709 -0.039965838 0.43700001
0.041393407 -0.039874382 0.43600002
0.042152919 -0.039874382 0.43600002
0.042912431 -0.039874382 0.43600002
0.043671943 -0.039874382 0.43600002
0.044431455 -0.039874382 0.43600002
0.045294616 -0.039965838 0.43700001
0.04616126 -0.040057294 0.43800002
0.047138523 -0.040240202 0.44000003
0.047905002 -0.040240202 0.44000003
0.048782099 -0.040331658 0.44100001
0.049550321 -0.040331658 0.44100001
0.050318543 -0.040331658 0.44100001
0.051086765 -0.040331658 0.44100001
0.051972572 -0.040423114 0.44200003
0.052742537 -0.040423114 0.44200003
0.053633571 -0.040514566 0.44300002
0.054528087 -0.040606022 0.44400004
0.055301536 -0.040606022 0.44400004
0.056201279 -0.040697478 0.44500002
0.056976467 -0.040697478 0.44500002
0.057751659 -0.040697478 0.44500002
0.058658369 -0.040788934 0.44600001
0.059435301 -0.040788934 0.44600001
0.06034724 -0.040880386 0.44700003
0.06126266 -0.040971842 0.44800001
0.062043075 -0.040971842 0.44800001
0.062963724 -0.041063298 0.44900003
0.063745879 -0.041063298 0.44900003
0.064671755 -0.041154753 0.45000002
0.065455653 -0.041154753 0.45000002
0.066386752 -0.041246209 0.45100003
0.067321338 -0.041337661 0.45200002
0.068108723 -0.041337661 0.45200002
0.068896107 -0.041337661 0.45200002
0.06999182 -0.041520573 0.45400003
0.070782691 -0.041520573 0.45400003
0.07173121 -0.041612029 0.45500001
0.072523817 -0.041612029 0.45500001
0.073316433 -0.041612029 0.45500001
0.07410904 -0.041612029 0.45500001
0.074901648 -0.041612029 0.45500001
0.07586062 -0.041703481 0.45600003
0.076823078 -0.041794937 0.45700002
0.077619173 -0.041794937 0.45700002
0.078586854 -0.041886393 0.45800003
0.079384685 -0.041886393 0.45800003
0.080182523 -0.041886393 0.45800003
0.080980361 -0.041886393 0.45800003
0.081956752 -0.041977849 0.45900002
0.082936622 -0.042069301 0.46000001
0.083919987 -0.042160757 0.46100003
0.084906824 -0.042252213 0.46200001
0.085711628 -0.042252213 0.46200001
0.086703703 -0.042343669 0.46300003
0.087699257 -0.042435121 0.46400002
0.088316791 -0.042343669 0.46300003
0.089123338 -0.042343669 0.46300003
0.089929886 -0.042343669 0.46300003
0.090736434 -0.042343669 0.46300003
0.091542974 -0.042343669 0.46300003
0.037152506 -0.040281139 0.44900003
0.037934665 -0.040281139 0.44900003
0.039294295 -0.039294295 0.43800002
0.040057294 -0.039294295 0.43800002
0.04072709 -0.039204583 0.43700001
0.041488346 -0.039204583 0.43700001
0.042249601 -0.039204583 0.43700001
0.042912431 -0.03911487 0.43600002
0.043671943 -0.03911487 0.43600002
0.044431455 -0.03911487 0.43600002
0.045501914 -0.039384011 0.43900001
0.046372041 -0.039473724 0.44000003
0.047245655 -0.039563436 0.44100001
0.048013877 -0.039563436 0.44100001
0.048782099 -0.039563436 0.44100001
0.049550321 -0.039563436 0.44100001
0.050318543 -0.039563436 0.44100001
0.05120261 -0.039653149 0.44200003
0.051972572 -0.039653149 0.44200003
0.052861866 -0.039742861 0.44300002
0.053754639 -0.039832573 0.44400004
0.054528087 -0.039832573 0.44400004
0.055426087 -0.039922286 0.44500002
0.056201279 -0.039922286 0.44500002
0.057104506 -0.040012002 0.44600001
0.057881437 -0.040012002 0.44600001
0.058658369 -0.040012002 0.44600001
0.059701826 -0.040191427 0.44800001
0.060482245 -0.040191427 0.44800001
0.061399408 -0.040281139 0.44900003
0.062181566 -0.040281139 0.44900003
0.063103952 -0.040370852 0.45000002
0.063887857 -0.040370852 0.45000002
0.064815469 -0.040460564 0.45100003
0.06560111 -0.040460564 0.45100003
0.066533953 -0.04055028 0.45200002
0.067321338 -0.04055028 0.45200002
0.068259403 -0.040639993 0.45300001
0.069048531 -0.040639993 0.45300001
0.06999182 -0.040729705 0.45400003
0.070782691 -0.040729705 0.45400003
0.07173121 -0.040819418 0.45500001
0.072523817 -0.040819418 0.45500001
0.073316433 -0.040819418 0.45500001
0.07410904 -0.040819418 0.45500001
0.075066268 -0.04090913 0.45600003
0.076026984 -0.040998843 0.45700002
0.076823078 -0.040998843 0.45700002
0.077789016 -0.041088555 0.45800003
0.078586854 -0.041088555 0.45800003
0.079558015 -0.041178271 0.45900002
0.080532663 -0.041267984 0.46000001
0.081333987 -0.041267984 0.46000001
0.082313858 -0.041357696 0.46100003
0.083116919 -0.041357696 0.46100003
0.08410202 -0.041447408 0.46200001
0.085090607 -0.041537121 0.46300003
0.085897155 -0.041537121 0.46300003
0.086890966 -0.041626833 0.46400002
0.087699257 -0.041626833 0.46400002
0.088507541 -0.041626833 0.46400002
0.089315832 -0.041626833 0.46400002
0.090124115 -0.041626833 0.46400002
0.090932406 -0.041626833 0.46400002
0.09174069 -0.041626833 0.46400002
0.037152506 -0.039498981 0.44900003
0.038795214 -0.038795214 0.44100001
0.039473724 -0.038707241 0.44000003
0.040240202 -0.038707241 0.44000003
0.040913485 -0.038619272 0.43900001
0.041583285 -0.0385313 0.43800002
0.04234628 -0.0385313 0.43800002
0.043109275 -0.0385313 0.43800002
0.043772109 -0.038443331 0.43700001
0.044839084 -0.038707241 0.44000003
0.045605563 -0.038707241 0.44000003
0.046477433 -0.038795214 0.44100001
0.047245655 -0.038795214 0.44100001
0.048013877 -0.038795214 0.44100001
0.048782099 -0.038795214 0.44100001
0.049550321 -0.038795214 0.44100001
0.050432645 -0.038883183 0.44200003
0.051318452 -0.038971156 0.44300002
0.052090157 -0.038971156 0.44300002
0.05298119 -0.039059125 0.44400004
0.053875707 -0.039147098 0.44500002
0.054650899 -0.039147098 0.44500002
0.055426087 -0.039147098 0.44500002
0.056327574 -0.039235067 0.44600001
0.057104506 -0.039235067 0.44600001
0.057881437 -0.039235067 0.44600001
0.058921412 -0.039411012 0.44800001
0.059701826 -0.039411012 0.44800001
0.060617249 -0.039498981 0.44900003
0.061399408 -0.039498981 0.44900003
0.062320054 -0.039586954 0.45000002
0.063244186 -0.039674923 0.45100003
0.064029828 -0.039674923 0.45100003
0.064815469 -0.039674923 0.45100003
0.065746568 -0.039762896 0.45200002
0.066533953 -0.039762896 0.45200002
0.067470275 -0.039850865 0.45300001
0.068410084 -0.039938837 0.45400003
0.069200955 -0.039938837 0.45400003
0.06999182 -0.039938837 0.45400003
0.070938602 -0.040026806 0.45500001
0.07173121 -0.040026806 0.45500001
0.072523817 -0.040026806 0.45500001
0.073316433 -0.040026806 0.45500001
0.074271917 -0.040114779 0.45600003
0.075230889 -0.040202748 0.45700002
0.076026984 -0.040202748 0.45700002
0.076991178 -0.040290721 0.45800003
0.07795886 -0.04037869 0.45900002
0.078758441 -0.04037869 0.45900002
0.079731345 -0.040466662 0.46000001
0.080532663 -0.040466662 0.46000001
0.081510797 -0.040554635 0.46100003
0.082313858 -0.040554635 0.46100003
0.083297223 -0.040642604 0.46200001
0.08428406 -0.040730577 0.46300003
0.085090607 -0.040730577 0.46300003
0.086082675 -0.040818546 0.46400002
0.086890966 -0.040818546 0.46400002
0.087888263 -0.040906519 0.46500003
0.08869829 -0.040906519 0.46500003
0.089508317 -0.040906519 0.46500003
0.090318352 -0.040906519 0.46500003
0.091128379 -0.040906519 0.46500003
0.091938414 -0.040906519 0.46500003
0.037152506 -0.038716823 0.44900003
0.038795214 -0.038026992 0.44100001
0.039563436 -0.038026992 0.44100001
0.040240202 -0.037940763 0.44000003
0.041006684 -0.037940763 0.44000003
0.041678224 -0.037854534 0.43900001
0.042442963 -0.037854534 0.43900001
0.043207701 -0.037854534 0.43900001
0.044072602 -0.037940763 0.44000003
0.044839084 -0.037940763 0.44000003
0.045605563 -0.037940763 0.44000003
0.046477433 -0.038026992 0.44100001
0.047352787 -0.038113222 0.44200003
0.048122752 -0.038113222 0.44200003
0.048892718 -0.038113222 0.44200003
0.049662679 -0.038113222 0.44200003
0.050660849 -0.03828568 0.44400004
0.051434293 -0.03828568 0.44400004
0.052325327 -0.038371906 0.44500002
0.053100519 -0.038371906 0.44500002
