# .PCD v0.7 - Point Cloud Data file format
VERSION 0.7
FIELDS x y z
SIZE 4 4 4
TYPE F F F
COUNT 1 1 1
WIDTH 1336
HEIGHT 1
VIEWPOINT 0 0 0 1 0 0 0
POINTS 1336
DATA ascii
0.06464301 -0.052685924 0.42900002
0.065542758 -0.052808732 0.43000001
0.066291817 -0.052808732 0.43000001
0.067196786 -0.052931543 0.43100002
0.067947589 -0.052931543 0.43100002
0.068857782 -0.053054355 0.43200001
0.069771461 -0.053177167 0.43300003
0.070525743 -0.053177167 0.43300003
0.071444653 -0.053299978 0.43400002
0.072200678 -0.053299978 0.43400002
0.072956704 -0.053299978 0.43400002
0.07388258 -0.05342279 0.43500003
0.074640349 -0.05342279 0.43500003
0.075571448 -0.053545598 0.43600002
0.07633096 -0.053545598 0.43600002
0.077090472 -0.053545598 0.43600002
0.078028537 -0.05366841 0.43700001
0.07897009 -0.053791221 0.43800002
0.079733089 -0.053791221 0.43800002
0.080679864 -0.053914033 0.43900001
0.081444599 -0.053914033 0.43900001
0.082396604 -0.054036845 0.44000003
0.083163083 -0.054036845 0.44000003
0.083929569 -0.054036845 0.44000003
0.084888533 -0.054159656 0.44100001
0.085656755 -0.054159656 0.44100001
0.086424984 -0.054159656 0.44100001
0.087193206 -0.054159656 0.44100001
0.087961428 -0.054159656 0.44100001
0.052013509 -0.054359984 0.44900003
0.052795667 -0.054359984 0.44900003
0.053577825 -0.054359984 0.44900003
0.054359984 -0.054359984 0.44900003
0.055142142 -0.054359984 0.44900003
0.055301536 -0.053754639 0.44400004
0.056074984 -0.053754639 0.44400004
0.061190367 -0.052180741 0.43100002
0.061941169 -0.052180741 0.43100002
0.062691972 -0.052180741 0.43100002
0.063442774 -0.052180741 0.43100002
0.064044632 -0.052059673 0.43000001
0.064793691 -0.052059673 0.43000001
0.065695181 -0.052180741 0.43100002
0.066445984 -0.052180741 0.43100002
0.067196786 -0.052180741 0.43100002
0.068105236 -0.052301813 0.43200001
0.068857782 -0.052301813 0.43200001
0.069932595 -0.052543949 0.43400002
0.07068862 -0.052543949 0.43400002
0.071444653 -0.052543949 0.43400002
0.072200678 -0.052543949 0.43400002
0.073124811 -0.052665018 0.43500003
0.07388258 -0.052665018 0.43500003
0.074811935 -0.052786086 0.43600002
0.075571448 -0.052786086 0.43600002
0.07633096 -0.052786086 0.43600002
0.077267289 -0.052907158 0.43700001
0.078207098 -0.053028226 0.43800002
0.07897009 -0.053028226 0.43800002
0.079915129 -0.053149294 0.43900001
0.080679864 -0.053149294 0.43900001
0.081630126 -0.053270362 0.44000003
0.082396604 -0.053270362 0.44000003
0.083352089 -0.053391431 0.44100001
0.084120311 -0.053391431 0.44100001
0.084888533 -0.053391431 0.44100001
0.085656755 -0.053391431 0.44100001
0.086424984 -0.053391431 0.44100001
0.087193206 -0.053391431 0.44100001
0.087961428 -0.053391431 0.44100001
0.08872965 -0.053391431 0.44100001
0.052013509 -0.053577825 0.44900003
0.052795667 -0.053577825 0.44900003
0.053577825 -0.053577825 0.44900003
0.054238915 -0.053458501 0.44800001
0.05501933 -0.053458501 0.44800001
0.055301536 -0.05298119 0.44400004
0.056074984 -0.05298119 0.44400004
0.056720395 -0.052861866 0.44300002
0.061190367 -0.051429939 0.43100002
0.061941169 -0.051429939 0.43100002
0.062691972 -0.051429939 0.43100002
0.063442774 -0.051429939 0.43100002
0.064193577 -0.051429939 0.43100002
0.064944379 -0.051429939 0.43100002
0.065695181 -0.051429939 0.43100002
0.066445984 -0.051429939 0.43100002
0.067196786 -0.051429939 0.43100002
0.068105236 -0.051549267 0.43200001
0.069017172 -0.051668596 0.43300003
0.069932595 -0.05178792 0.43400002
0.07068862 -0.05178792 0.43400002
0.071444653 -0.05178792 0.43400002
0.072367042 -0.051907249 0.43500003
0.073124811 -0.051907249 0.43500003
0.074052423 -0.052026574 0.43600002
0.074811935 -0.052026574 0.43600002
0.075571448 -0.052026574 0.43600002
0.076506034 -0.052145902 0.43700001
0.077444099 -0.052265231 0.43800002
0.078207098 -0.052265231 0.43800002
0.079150386 -0.052384555 0.43900001
0.079915129 -0.052384555 0.43900001
0.080679864 -0.052384555 0.43900001
0.081630126 -0.052503884 0.44000003
0.082396604 -0.052503884 0.44000003
0.083352089 -0.052623209 0.44100001
0.084120311 -0.052623209 0.44100001
0.085081026 -0.052742537 0.44200003
0.085850991 -0.052742537 0.44200003
0.086424984 -0.052623209 0.44100001
0.087390922 -0.052742537 0.44200003
0.08816088 -0.052742537 0.44200003
0.089534454 -0.053100519 0.44500002
0.051897667 -0.052678082 0.44800001
0.052678082 -0.052678082 0.44800001
0.053458501 -0.052678082 0.44800001
0.053996779 -0.052442912 0.44600001
0.054650899 -0.052325327 0.44500002
0.055426087 -0.052325327 0.44500002
0.056074984 -0.052207742 0.44400004
0.056848433 -0.052207742 0.44400004
0.0574921 -0.052090157 0.44300002
0.061332341 -0.050796725 0.43200001
0.061941169 -0.05067914 0.43100002
0.062691972 -0.05067914 0.43100002
0.063442774 -0.05067914 0.43100002
0.064193577 -0.05067914 0.43100002
0.064944379 -0.05067914 0.43100002
0.065695181 -0.05067914 0.43100002
0.066600151 -0.050796725 0.43200001
0.06735269 -0.050796725 0.43200001
0.068105236 -0.050796725 0.43200001
0.069017172 -0.05091431 0.43300003
0.069932595 -0.051031895 0.43400002
0.07068862 -0.051031895 0.43400002
0.071609266 -0.05114948 0.43500003
0.072367042 -0.05114948 0.43500003
0.073292911 -0.051267061 0.43600002
0.074052423 -0.051267061 0.43600002
0.074811935 -0.051267061 0.43600002
0.075744778 -0.051384646 0.43700001
0.0766811 -0.051502232 0.43800002
0.077620909 -0.051619817 0.43900001
0.078385651 -0.051619817 0.43900001
0.079150386 -0.051619817 0.43900001
0.080097169 -0.051737402 0.44000003
0.080863647 -0.051737402 0.44000003
0.081815645 -0.051854987 0.44100001
0.082583867 -0.051854987 0.44100001
0.083541103 -0.051972572 0.44200003
0.084311061 -0.051972572 0.44200003
0.085081026 -0.051972572 0.44200003
0.085850991 -0.051972572 0.44200003
0.086620957 -0.051972572 0.44200003
0.087390922 -0.051972572 0.44200003
0.088759258 -0.052325327 0.44500002
0.089534454 -0.052325327 0.44500002
0.090309642 -0.052325327 0.44500002
0.052013509 -0.052013509 0.44900003
0.052795667 -0.052013509 0.44900003
0.053339172 -0.051781826 0.44700003
0.053996779 -0.05166598 0.44600001
0.054650899 -0.051550139 0.44500002
0.055426087 -0.051550139 0.44500002
0.056074984 -0.051434293 0.44400004
0.056848433 -0.051434293 0.44400004
0.0574921 -0.051318452 0.44300002
0.061332341 -0.050044179 0.43200001
0.062084883 -0.050044179 0.43200001
0.062691972 -0.049928337 0.43100002
0.063442774 -0.049928337 0.43100002
0.064193577 -0.049928337 0.43100002
0.06509506 -0.050044179 0.43200001
0.065847605 -0.050044179 0.43200001
0.066600151 -0.050044179 0.43200001
0.067508601 -0.050160021 0.43300003
0.06826289 -0.050160021 0.43300003
0.06917657 -0.050275866 0.43400002
0.070093729 -0.050391708 0.43500003
0.070851497 -0.050391708 0.43500003
0.071609266 -0.050391708 0.43500003
0.072533399 -0.050507553 0.43600002
0.073292911 -0.050507553 0.43600002
0.074222267 -0.050623395 0.43700001
0.074983522 -0.050623395 0.43700001
0.076091439 -0.050855082 0.43900001
0.076856174 -0.050855082 0.43900001
0.077620909 -0.050855082 0.43900001
0.078564204 -0.050970923 0.44000003
0.079330683 -0.050970923 0.44000003
0.080097169 -0.050970923 0.44000003
0.081047423 -0.051086765 0.44100001
0.081815645 -0.051086765 0.44100001
0.082771137 -0.05120261 0.44200003
0.083541103 -0.05120261 0.44200003
0.084311061 -0.05120261 0.44200003
0.085081026 -0.05120261 0.44200003
0.085850991 -0.05120261 0.44200003
0.086620957 -0.05120261 0.44200003
0.087390922 -0.05120261 0.44200003
0.08816088 -0.05120261 0.44200003
0.052795667 -0.051231351 0.44900003
0.053339172 -0.051003151 0.44700003
0.053996779 -0.050889049 0.44600001
0.054773711 -0.050889049 0.44600001
0.055426087 -0.050774947 0.44500002
0.056074984 -0.050660849 0.44400004
0.056848433 -0.050660849 0.44400004
0.057362322 -0.050432645 0.44200003
0.058132287 -0.050432645 0.44200003
0.06024272 -0.049633939 0.43500003
0.060860258 -0.049519837 0.43400002
0.061332341 -0.049291637 0.43200001
0.062084883 -0.049291637 0.43200001
0.062837429 -0.049291637 0.43200001
0.063589975 -0.049291637 0.43200001
0.064342514 -0.049291637 0.43200001
0.06509506 -0.049291637 0.43200001
0.066000029 -0.049405735 0.43300003
0.066754319 -0.049405735 0.43300003
0.067664512 -0.049519837 0.43400002
0.068420537 -0.049519837 0.43400002
0.06917657 -0.049519837 0.43400002
0.070093729 -0.049633939 0.43500003
0.070851497 -0.049633939 0.43500003
0.071773887 -0.049748041 0.43600002
0.072533399 -0.049748041 0.43600002
0.073461019 -0.049862139 0.43700001
0.074392118 -0.049976241 0.43800002
0.074983522 -0.049862139 0.43700001
0.076091439 -0.050090343 0.43900001
0.076856174 -0.050090343 0.43900001
0.077797726 -0.050204445 0.44000003
0.078564204 -0.050204445 0.44000003
0.079510979 -0.050318543 0.44100001
0.080279201 -0.050318543 0.44100001
0.081231207 -0.050432645 0.44200003
0.082001172 -0.050432645 0.44200003
0.082771137 -0.050432645 0.44200003
0.083541103 -0.050432645 0.44200003
0.08450181 -0.050546747 0.44300002
0.085273519 -0.050546747 0.44300002
0.086045228 -0.050546747 0.44300002
0.086620957 -0.050432645 0.44200003
0.087390922 -0.050432645 0.44200003
0.052795667 -0.050449193 0.44900003
0.053577825 -0.050449193 0.44900003
0.053996779 -0.050112117 0.44600001
0.054773711 -0.050112117 0.44600001
0.055301536 -0.0498874 0.44400004
0.056074984 -0.0498874 0.44400004
0.056720395 -0.049775042 0.44300002
0.057362322 -0.049662679 0.44200003
0.058000766 -0.049550321 0.44100001
0.058635723 -0.049437962 0.44000003
0.059402205 -0.049437962 0.44000003
0.06024272 -0.048876166 0.43500003
0.060860258 -0.048763808 0.43400002
0.061616287 -0.048763808 0.43400002
0.062228598 -0.048651449 0.43300003
0.062837429 -0.048539091 0.43200001
0.063589975 -0.048539091 0.43200001
0.064342514 -0.048539091 0.43200001
0.06524574 -0.048651449 0.43300003
0.066000029 -0.048651449 0.43300003
0.066908479 -0.048763808 0.43400002
0.067664512 -0.048763808 0.43400002
0.068420537 -0.048763808 0.43400002
0.06933596 -0.048876166 0.43500003
0.070254862 -0.048988529 0.43600002
0.071014374 -0.048988529 0.43600002
0.071773887 -0.048988529 0.43600002
0.072699763 -0.049100887 0.43700001
0.073461019 -0.049100887 0.43700001
0.074561961 -0.049325604 0.43900001
0.075155109 -0.049213246 0.43800002
0.076264761 -0.049437962 0.44000003
0.077031247 -0.049437962 0.44000003
0.077974536 -0.049550321 0.44100001
0.078742757 -0.049550321 0.44100001
0.079691276 -0.049662679 0.44200003
0.080461241 -0.049662679 0.44200003
0.081231207 -0.049662679 0.44200003
0.082186691 -0.049775042 0.44300002
0.0829584 -0.049775042 0.44300002
0.083730109 -0.049775042 0.44300002
0.08469256 -0.0498874 0.44400004
0.085466012 -0.0498874 0.44400004
0.086045228 -0.049775042 0.44300002
0.086816929 -0.049775042 0.44300002
0.087588638 -0.049775042 0.44300002
0.052795667 -0.049667034 0.44900003
0.053577825 -0.049667034 0.44900003
0.054359984 -0.049667034 0.44900003
0.055142142 -0.049667034 0.44900003
0.056201279 -0.049224567 0.44500002
0.056848433 -0.049113952 0.44400004
0.057362322 -0.048892718 0.44200003
0.058000766 -0.048782099 0.44100001
0.058635723 -0.048671484 0.44000003
0.059402205 -0.048671484 0.44000003
0.059621695 -0.048229016 0.43600002
0.060381208 -0.048229016 0.43600002
0.061000489 -0.048118398 0.43500003
0.061616287 -0.048007783 0.43400002
0.062372316 -0.048007783 0.43400002
0.063128345 -0.048007783 0.43400002
0.06388437 -0.048007783 0.43400002
0.064491458 -0.047897164 0.43300003
0.065396428 -0.048007783 0.43400002
0.066152453 -0.048007783 0.43400002
0.067062646 -0.048118398 0.43500003
0.067820422 -0.048118398 0.43500003
0.068578191 -0.048118398 0.43500003
0.06949535 -0.048229016 0.43600002
0.070415996 -0.048339631 0.43700001
0.071177252 -0.048339631 0.43700001
0.072103128 -0.04845025 0.43800002
0.073032483 -0.048560865 0.43900001
0.073797219 -0.048560865 0.43900001
0.074561961 -0.048560865 0.43900001
0.075498283 -0.048671484 0.44000003
0.076264761 -0.048671484 0.44000003
0.077206314 -0.048782099 0.44100001
0.077974536 -0.048782099 0.44100001
0.078742757 -0.048782099 0.44100001
0.079691276 -0.048892718 0.44200003
0.080461241 -0.048892718 0.44200003
0.08141499 -0.049003333 0.44300002
0.082186691 -0.049003333 0.44300002
0.083145663 -0.049113952 0.44400004
0.083919115 -0.049113952 0.44400004
0.08469256 -0.049113952 0.44400004
0.085466012 -0.049113952 0.44400004
0.086239457 -0.049113952 0.44400004
0.086816929 -0.049003333 0.44300002
0.056201279 -0.048449378 0.44500002
0.056848433 -0.048340503 0.44400004
0.057362322 -0.048122752 0.44200003
0.058000766 -0.048013877 0.44100001
0.058635723 -0.047905002 0.44000003
0.059402205 -0.047905002 0.44000003
0.059621695 -0.047469504 0.43600002
0.060381208 -0.047469504 0.43600002
0.061000489 -0.047360629 0.43500003
0.061758257 -0.047360629 0.43500003
0.062516026 -0.047360629 0.43500003
0.063273802 -0.047360629 0.43500003
0.06388437 -0.047251754 0.43400002
0.064640395 -0.047251754 0.43400002
0.065547109 -0.047360629 0.43500003
0.066304877 -0.047360629 0.43500003
0.067062646 -0.047360629 0.43500003
0.067820422 -0.047360629 0.43500003
0.068735838 -0.047469504 0.43600002
0.06949535 -0.047469504 0.43600002
0.070415996 -0.04757838 0.43700001
0.071340129 -0.047687251 0.43800002
0.072267748 -0.047796126 0.43900001
0.073032483 -0.047796126 0.43900001
0.073965326 -0.047905002 0.44000003
0.074731804 -0.047905002 0.44000003
0.07566987 -0.048013877 0.44100001
0.076438092 -0.048013877 0.44100001
0.077381387 -0.048122752 0.44200003
0.078151353 -0.048122752 0.44200003
0.078921318 -0.048122752 0.44200003
0.079691276 -0.048122752 0.44200003
0.080643281 -0.048231628 0.44300002
0.081598766 -0.048340503 0.44400004
0.082372218 -0.048340503 0.44400004
0.083332933 -0.048449378 0.44500002
0.084108122 -0.048449378 0.44500002
0.08488331 -0.048449378 0.44500002
0.085658498 -0.048449378 0.44500002
0.086239457 -0.048340503 0.44400004
0.087012902 -0.048340503 0.44400004
0.051348068 -0.048959784 0.45700002
0.05203006 -0.048852652 0.45600003
0.053383593 -0.048638385 0.45400003
0.05417446 -0.048638385 0.45400003
0.056720395 -0.047459923 0.44300002
0.057362322 -0.047352787 0.44200003
0.058000766 -0.047245655 0.44100001
0.058635723 -0.047138523 0.44000003
0.058997188 -0.046817124 0.43700001
0.059621695 -0.046709992 0.43600002
0.060381208 -0.046709992 0.43600002
0.06114072 -0.046709992 0.43600002
0.061758257 -0.046602856 0.43500003
0.062516026 -0.046602856 0.43500003
0.063273802 -0.046602856 0.43500003
0.064031571 -0.046602856 0.43500003
0.06478934 -0.046602856 0.43500003
0.065547109 -0.046602856 0.43500003
0.066304877 -0.046602856 0.43500003
0.067216814 -0.046709992 0.43600002
0.067976326 -0.046709992 0.43600002
0.068735838 -0.046709992 0.43600002
0.069654748 -0.046817124 0.43700001
0.070738271 -0.047031391 0.43900001
0.071503006 -0.047031391 0.43900001
0.072432362 -0.047138523 0.44000003
0.073198847 -0.047138523 0.44000003
0.074133426 -0.047245655 0.44100001
0.074901648 -0.047245655 0.44100001
0.07566987 -0.047245655 0.44100001
0.076611422 -0.047352787 0.44200003
0.077381387 -0.047352787 0.44200003
0.078151353 -0.047352787 0.44200003
0.078921318 -0.047352787 0.44200003
0.079871573 -0.047459923 0.44300002
0.080825321 -0.047567055 0.44400004
0.081598766 -0.047567055 0.44400004
0.082557738 -0.047674187 0.44500002
0.083332933 -0.047674187 0.44500002
0.084108122 -0.047674187 0.44500002
0.08488331 -0.047674187 0.44500002
0.085658498 -0.047674187 0.44500002
0.086433694 -0.047674187 0.44500002
0.087208882 -0.047674187 0.44500002
0.051915959 -0.047952909 0.45500001
0.05270857 -0.047952909 0.45500001
0.053383593 -0.047847517 0.45400003
0.05417446 -0.047847517 0.45400003
0.057232544 -0.046477433 0.44100001
0.057869244 -0.046372041 0.44000003
0.058635723 -0.046372041 0.44000003
0.059402205 -0.046372041 0.44000003
0.059621695 -0.04595048 0.43600002
0.060381208 -0.04595048 0.43600002
0.06114072 -0.04595048 0.43600002
0.061900232 -0.04595048 0.43600002
0.062516026 -0.045845088 0.43500003
0.063273802 -0.045845088 0.43500003
0.064031571 -0.045845088 0.43500003
0.06478934 -0.045845088 0.43500003
0.065547109 -0.045845088 0.43500003
0.066457301 -0.04595048 0.43600002
0.067216814 -0.04595048 0.43600002
0.067976326 -0.04595048 0.43600002
0.068893492 -0.046055868 0.43700001
0.069814138 -0.04616126 0.43800002
0.070738271 -0.046266653 0.43900001
0.071665883 -0.046372041 0.44000003
0.072432362 -0.046372041 0.44000003
0.073198847 -0.046372041 0.44000003
0.074133426 -0.046477433 0.44100001
0.074901648 -0.046477433 0.44100001
0.075841457 -0.046582825 0.44200003
0.076611422 -0.046582825 0.44200003
0.077381387 -0.046582825 0.44200003
0.078151353 -0.046582825 0.44200003
0.079099871 -0.046688218 0.44300002
0.080051877 -0.046793606 0.44400004
0.080825321 -0.046793606 0.44400004
0.08178255 -0.046898998 0.44500002
0.082557738 -0.046898998 0.44500002
0.083332933 -0.046898998 0.44500002
0.084297128 -0.047004391 0.44600001
0.08507406 -0.047004391 0.44600001
0.085850991 -0.047004391 0.44600001
0.086433694 -0.046898998 0.44500002
0.087208882 -0.046898998 0.44500002
0.051348068 -0.047367595 0.45700002
0.052144159 -0.047367595 0.45700002
0.052940253 -0.047367595 0.45700002
0.053736348 -0.047367595 0.45700002
0.05417446 -0.047056649 0.45400003
0.057232544 -0.045709211 0.44100001
0.058000766 -0.045709211 0.44100001
0.058635723 -0.045605563 0.44000003
0.059402205 -0.045605563 0.44000003
0.059758443 -0.045294616 0.43700001
0.060519695 -0.045294616 0.43700001
0.06114072 -0.045190968 0.43600002
0.061900232 -0.045190968 0.43600002
0.06265974 -0.045190968 0.43600002
0.063419253 -0.045190968 0.43600002
0.064178765 -0.045190968 0.43600002
0.064938277 -0.045190968 0.43600002
0.065697789 -0.045190968 0.43600002
0.066457301 -0.045190968 0.43600002
0.067370981 -0.045294616 0.43700001
0.068132237 -0.045294616 0.43700001
0.069051139 -0.045398265 0.43800002
0.069973528 -0.045501914 0.43900001
0.070899405 -0.045605563 0.44000003
0.071665883 -0.045605563 0.44000003
0.072432362 -0.045605563 0.44000003
0.073365204 -0.045709211 0.44100001
0.074133426 -0.045709211 0.44100001
0.075071491 -0.04581286 0.44200003
0.075841457 -0.04581286 0.44200003
0.076611422 -0.04581286 0.44200003
0.077556461 -0.045916509 0.44300002
0.078328162 -0.045916509 0.44300002
0.079278424 -0.046020158 0.44400004
0.080051877 -0.046020158 0.44400004
0.081007361 -0.046123806 0.44500002
0.08178255 -0.046123806 0.44500002
0.082743265 -0.046227455 0.44600001
0.083520196 -0.046227455 0.44600001
0.084297128 -0.046227455 0.44600001
0.08507406 -0.046227455 0.44600001
0.085850991 -0.046227455 0.44600001
0.086627923 -0.046227455 0.44600001
0.051348068 -0.046571501 0.45700002
0.052144159 -0.046571501 0.45700002
0.052940253 -0.046571501 0.45700002
0.053736348 -0.046571501 0.45700002
0.057869244 -0.044839084 0.44000003
0.058635723 -0.044839084 0.44000003
0.059402205 -0.044839084 0.44000003
0.060381208 -0.044431455 0.43600002
0.06114072 -0.044431455 0.43600002
0.061900232 -0.044431455 0.43600002
0.06265974 -0.044431455 0.43600002
0.063419253 -0.044431455 0.43600002
0.064178765 -0.044431455 0.43600002
0.064938277 -0.044431455 0.43600002
0.065697789 -0.044431455 0.43600002
0.066609733 -0.044533361 0.43700001
0.067370981 -0.044533361 0.43700001
0.068288147 -0.04463527 0.43800002
0.069208793 -0.044737175 0.43900001
0.069973528 -0.044737175 0.43900001
0.070899405 -0.044839084 0.44000003
0.071665883 -0.044839084 0.44000003
0.072596982 -0.044940989 0.44100001
0.073365204 -0.044940989 0.44100001
0.074133426 -0.044940989 0.44100001
0.075071491 -0.045042899 0.44200003
0.075841457 -0.045042899 0.44200003
0.076784752 -0.045144804 0.44300002
0.077731527 -0.045246709 0.44400004
0.07850498 -0.045246709 0.44400004
0.079456978 -0.045348618 0.44500002
0.080232173 -0.045348618 0.44500002
0.081007361 -0.045348618 0.44500002
0.081966333 -0.045450523 0.44600001
0.082743265 -0.045450523 0.44600001
0.083520196 -0.045450523 0.44600001
0.084486134 -0.045552433 0.44700003
0.085264809 -0.045552433 0.44700003
0.086043485 -0.045552433 0.44700003
0.087016389 -0.045654338 0.44800001
0.087796807 -0.045654338 0.44800001
0.060519695 -0.043772109 0.43700001
0.061280951 -0.043772109 0.43700001
0.061900232 -0.043671943 0.43600002
0.06265974 -0.043671943 0.43600002
0.063419253 -0.043671943 0.43600002
0.064178765 -0.043671943 0.43600002
0.064938277 -0.043671943 0.43600002
0.065848477 -0.043772109 0.43700001
0.066609733 -0.043772109 0.43700001
0.067525148 -0.043872274 0.43800002
0.068444058 -0.043972436 0.43900001
0.069208793 -0.043972436 0.43900001
0.070132926 -0.044072602 0.44000003
0.070899405 -0.044072602 0.44000003
0.07182876 -0.044172768 0.44100001
0.072596982 -0.044172768 0.44100001
0.073365204 -0.044172768 0.44100001
0.074301533 -0.044272933 0.44200003
0.075411186 -0.044473264 0.44400004
0.07618463 -0.044473264 0.44400004
0.076958083 -0.044473264 0.44400004
0.077906601 -0.044573426 0.44500002
0.078681789 -0.044573426 0.44500002
0.079635538 -0.044673592 0.44600001
0.08041247 -0.044673592 0.44600001
0.081189401 -0.044673592 0.44600001
0.081966333 -0.044673592 0.44600001
0.082928784 -0.044773757 0.44700003
0.083707459 -0.044773757 0.44700003
0.084675141 -0.044873923 0.44800001
0.085455559 -0.044873923 0.44800001
0.08623597 -0.044873923 0.44800001
0.087016389 -0.044873923 0.44800001
0.087796807 -0.044873923 0.44800001
0.060519695 -0.043010853 0.43700001
0.061280951 -0.043010853 0.43700001
0.062042207 -0.043010853 0.43700001
0.062803462 -0.043010853 0.43700001
0.06356471 -0.043010853 0.43700001
0.064325966 -0.043010853 0.43700001
0.065087222 -0.043010853 0.43700001
0.065848477 -0.043010853 0.43700001
0.066762157 -0.043109275 0.43800002
0.067679316 -0.043207701 0.43900001
0.068599962 -0.043306123 0.44000003
0.069366448 -0.043306123 0.44000003
0.070132926 -0.043306123 0.44000003
0.071060538 -0.043404546 0.44100001
0.07182876 -0.043404546 0.44100001
0.072596982 -0.043404546 0.44100001
0.073531568 -0.043502968 0.44200003
0.074469633 -0.04360139 0.44300002
0.075411186 -0.043699816 0.44400004
0.07618463 -0.043699816 0.44400004
0.076958083 -0.043699816 0.44400004
0.077906601 -0.043798238 0.44500002
0.078858607 -0.04389666 0.44600001
0.079635538 -0.04389666 0.44600001
0.08041247 -0.04389666 0.44600001
0.081371441 -0.043995082 0.44700003
0.082150109 -0.043995082 0.44700003
0.083114311 -0.044093508 0.44800001
0.083894722 -0.044093508 0.44800001
0.084675141 -0.044093508 0.44800001
0.085646309 -0.04419193 0.44900003
0.086620957 -0.044290353 0.45000002
0.087016389 -0.044093508 0.44800001
0.087796807 -0.044093508 0.44800001
0.060658187 -0.04234628 0.43800002
0.061421182 -0.04234628 0.43800002
0.062042207 -0.042249601 0.43700001
0.062803462 -0.042249601 0.43700001
0.06356471 -0.042249601 0.43700001
0.064473167 -0.04234628 0.43800002
0.065236159 -0.04234628 0.43800002
0.065999158 -0.04234628 0.43800002
0.066914581 -0.042442963 0.43900001
0.067833483 -0.042539641 0.44000003
0.068599962 -0.042539641 0.44000003
0.069366448 -0.042539641 0.44000003
0.070132926 -0.042539641 0.44000003
0.071060538 -0.042636324 0.44100001
0.071991637 -0.042733006 0.44200003
0.072596982 -0.042636324 0.44100001
0.073531568 -0.042733006 0.44200003
0.074805841 -0.043023046 0.44500002
0.075581029 -0.043023046 0.44500002
0.076356217 -0.043023046 0.44500002
0.077131413 -0.043023046 0.44500002
0.078081667 -0.043119729 0.44600001
0.078858607 -0.043119729 0.44600001
0.079635538 -0.043119729 0.44600001
0.080592766 -0.043216411 0.44700003
0.081371441 -0.043216411 0.44700003
0.082333893 -0.04331309 0.44800001
0.083114311 -0.04331309 0.44800001
0.083894722 -0.04331309 0.44800001
0.084864147 -0.043409772 0.44900003
0.086027801 -0.043603133 0.45100003
0.08681345 -0.043603133 0.45100003
0.087404855 -0.043506451 0.45000002
0.088580705 -0.043699816 0.45200002
0.08936809 -0.043699816 0.45200002
0.060796674 -0.041678224 0.43900001
0.061561413 -0.041678224 0.43900001
0.062184177 -0.041583285 0.43800002
0.062947176 -0.041583285 0.43800002
0.063710168 -0.041583285 0.43800002
0.064473167 -0.041583285 0.43800002
0.065236159 -0.041583285 0.43800002
0.066149838 -0.041678224 0.43900001
0.067067005 -0.041773163 0.44000003
0.067833483 -0.041773163 0.44000003
0.068599962 -0.041773163 0.44000003
0.069366448 -0.041773163 0.44000003
0.070292316 -0.041868102 0.44100001
0.071060538 -0.041868102 0.44100001
0.072154514 -0.04205798 0.44300002
0.073090844 -0.042152919 0.44400004
0.073864289 -0.042152919 0.44400004
0.074805841 -0.042247858 0.44500002
0.075581029 -0.042247858 0.44500002
0.076356217 -0.042247858 0.44500002
0.077304736 -0.042342797 0.44600001
0.078256741 -0.042437736 0.44700003
0.079035416 -0.042437736 0.44700003
0.079814091 -0.042437736 0.44700003
0.080773063 -0.042532675 0.44800001
0.081553474 -0.042532675 0.44800001
0.082333893 -0.042532675 0.44800001
0.083299831 -0.042627614 0.44900003
0.084081993 -0.042627614 0.44900003
0.08524216 -0.042817492 0.45100003
0.086027801 -0.042817492 0.45100003
0.087005936 -0.042912431 0.45200002
0.08779332 -0.042912431 0.45200002
0.088580705 -0.042912431 0.45200002
0.08936809 -0.042912431 0.45200002
0.059942223 -0.04137947 0.44400004
0.060715672 -0.04137947 0.44400004
0.061073653 -0.04109988 0.44100001
0.061701644 -0.041006684 0.44000003
0.062326152 -0.040913485 0.43900001
0.063090891 -0.040913485 0.43900001
0.063855626 -0.040913485 0.43900001
0.064620368 -0.040913485 0.43900001
0.065385103 -0.040913485 0.43900001
0.066149838 -0.040913485 0.43900001
0.067067005 -0.041006684 0.44000003
0.067833483 -0.041006684 0.44000003
0.068599962 -0.041006684 0.44000003
0.069366448 -0.041006684 0.44000003
0.070292316 -0.04109988 0.44100001
0.071705081 -0.041472666 0.44500002
0.072317392 -0.04137947 0.44400004
0.073255457 -0.041472666 0.44500002
0.074030653 -0.041472666 0.44500002
0.074973941 -0.041565865 0.44600001
0.075750872 -0.041565865 0.44600001
0.076527804 -0.041565865 0.44600001
0.077478066 -0.041659061 0.44700003
0.078431815 -0.04175226 0.44800001
0.079212226 -0.04175226 0.44800001
0.079992644 -0.04175226 0.44800001
0.080773063 -0.04175226 0.44800001
0.081553474 -0.04175226 0.44800001
0.082517676 -0.041845456 0.44900003
0.083299831 -0.041845456 0.44900003
0.084456518 -0.042031851 0.45100003
0.08524216 -0.042031851 0.45100003
0.086218551 -0.042125046 0.45200002
0.087005936 -0.042125046 0.45200002
0.08779332 -0.042125046 0.45200002
0.088776678 -0.042218242 0.45300001
0.089565806 -0.042218242 0.45300001
0.058526848 -0.040697478 0.44500002
0.059302039 -0.040697478 0.44500002
0.059942223 -0.040606022 0.44400004
0.060442179 -0.040423114 0.44200003
0.061073653 -0.040331658 0.44100001
0.061701644 -0.040240202 0.44000003
0.062468123 -0.040240202 0.44000003
0.063234605 -0.040240202 0.44000003
0.064001083 -0.040240202 0.44000003
0.064767562 -0.040240202 0.44000003
0.065534048 -0.040240202 0.44000003
0.066300526 -0.040240202 0.44000003
0.067219429 -0.040331658 0.44100001
0.067987651 -0.040331658 0.44100001
0.068755873 -0.040331658 0.44100001
0.069681749 -0.040423114 0.44200003
0.070770495 -0.040606022 0.44400004
0.071705081 -0.040697478 0.44500002
0.072480269 -0.040697478 0.44500002
0.073255457 -0.040697478 0.44500002
0.074197009 -0.040788934 0.44600001
0.074973941 -0.040788934 0.44600001
0.075750872 -0.040788934 0.44600001
0.076699391 -0.040880386 0.44700003
0.077651396 -0.040971842 0.44800001
0.078431815 -0.040971842 0.44800001
0.079212226 -0.040971842 0.44800001
0.079992644 -0.040971842 0.44800001
0.08095336 -0.041063298 0.44900003
0.081735514 -0.041063298 0.44900003
0.082701452 -0.041154753 0.45000002
0.083485357 -0.041154753 0.45000002
0.084456518 -0.041246209 0.45100003
0.085431166 -0.041337661 0.45200002
0.086218551 -0.041337661 0.45200002
0.087198429 -0.041429117 0.45300001
0.087987557 -0.041429117 0.45300001
0.088972658 -0.041520573 0.45400003
0.089763522 -0.041520573 0.45400003
0.057751659 -0.039922286 0.44500002
0.058526848 -0.039922286 0.44500002
0.059302039 -0.039922286 0.44500002
0.059942223 -0.039832573 0.44400004
0.060442179 -0.039653149 0.44200003
0.061212141 -0.039653149 0.44200003
0.061841875 -0.039563436 0.44100001
0.062468123 -0.039473724 0.44000003
0.063234605 -0.039473724 0.44000003
0.064001083 -0.039473724 0.44000003
0.064767562 -0.039473724 0.44000003
0.065682985 -0.039563436 0.44100001
0.066451207 -0.039563436 0.44100001
0.067371853 -0.039653149 0.44200003
0.068141818 -0.039653149 0.44200003
0.068911783 -0.039653149 0.44200003
0.06999705 -0.039832573 0.44400004
0.070770495 -0.039832573 0.44400004
0.071705081 -0.039922286 0.44500002
0.072643146 -0.040012002 0.44600001
0.073420078 -0.040012002 0.44600001
0.074197009 -0.040012002 0.44600001
0.074973941 -0.040012002 0.44600001
0.075920723 -0.040101714 0.44700003
0.076699391 -0.040101714 0.44700003
0.077651396 -0.040191427 0.44800001
0.078431815 -0.040191427 0.44800001
0.079212226 -0.040191427 0.44800001
0.080171198 -0.040281139 0.44900003
0.08095336 -0.040281139 0.44900003
0.082099594 -0.040460564 0.45100003
0.082885236 -0.040460564 0.45100003
0.083670877 -0.040460564 0.45100003
0.084643789 -0.04055028 0.45200002
0.08562018 -0.040639993 0.45300001
0.086409301 -0.040639993 0.45300001
0.087198429 -0.040639993 0.45300001
0.088181786 -0.040729705 0.45400003
0.057751659 -0.039147098 0.44500002
0.058526848 -0.039147098 0.44500002
0.059302039 -0.039147098 0.44500002
0.059942223 -0.039059125 0.44400004
0.060442179 -0.038883183 0.44200003
0.061212141 -0.038883183 0.44200003
0.061841875 -0.038795214 0.44100001
0.062610097 -0.038795214 0.44100001
0.063378319 -0.038795214 0.44100001
0.064146541 -0.038795214 0.44100001
0.064914763 -0.038795214 0.44100001
0.065831929 -0.038883183 0.44200003
0.066601887 -0.038883183 0.44200003
0.067524277 -0.038971156 0.44300002
0.068450153 -0.039059125 0.44400004
0.069223598 -0.039059125 0.44400004
0.06999705 -0.039059125 0.44400004
0.070929892 -0.039147098 0.44500002
0.071705081 -0.039147098 0.44500002
0.072643146 -0.039235067 0.44600001
0.073420078 -0.039235067 0.44600001
0.074197009 -0.039235067 0.44600001
0.075142048 -0.039323039 0.44700003
0.076090567 -0.039411012 0.44800001
0.076870978 -0.039411012 0.44800001
0.077651396 -0.039411012 0.44800001
0.078606881 -0.039498981 0.44900003
0.079389043 -0.039498981 0.44900003
0.080349758 -0.039586954 0.45000002
0.081313953 -0.039674923 0.45100003
0.082281634 -0.039762896 0.45200002
0.083069019 -0.039762896 0.45200002
0.083856404 -0.039762896 0.45200002
0.084831052 -0.039850865 0.45300001
0.085809186 -0.039938837 0.45400003
0.08660005 -0.039938837 0.45400003
0.087390922 -0.039938837 0.45400003
0.088181786 -0.039938837 0.45400003
0.057751659 -0.038371906 0.44500002
0.058526848 -0.038371906 0.44500002
0.059302039 -0.038371906 0.44500002
0.059942223 -0.03828568 0.44400004
0.060578924 -0.038199451 0.44300002
0.061212141 -0.038113222 0.44200003
0.061982106 -0.038113222 0.44200003
0.062752068 -0.038113222 0.44200003
0.063378319 -0.038026992 0.44100001
0.064146541 -0.038026992 0.44100001
0.065061964 -0.038113222 0.44200003
0.065831929 -0.038113222 0.44200003
0.066752575 -0.038199451 0.44300002
0.067676701 -0.03828568 0.44400004
0.068450153 -0.03828568 0.44400004
0.069223598 -0.03828568 0.44400004
0.070154697 -0.038371906 0.44500002
0.070929892 -0.038371906 0.44500002
0.071866214 -0.038458135 0.44600001
0.072643146 -0.038458135 0.44600001
0.073420078 -0.038458135 0.44600001
0.074363373 -0.038544364 0.44700003
0.075310148 -0.038630594 0.44800001
0.076090567 -0.038630594 0.44800001
0.076870978 -0.038630594 0.44800001
0.077824727 -0.038716823 0.44900003
0.078781955 -0.038803052 0.45000002
0.07974267 -0.038889281 0.45100003
0.080528311 -0.038889281 0.45100003
0.081494249 -0.038975511 0.45200002
0.082281634 -0.038975511 0.45200002
0.083252795 -0.03906174 0.45300001
0.084041923 -0.03906174 0.45300001
0.085018314 -0.039147969 0.45400003
0.085809186 -0.039147969 0.45400003
0.08660005 -0.039147969 0.45400003
0.087390922 -0.039147969 0.45400003
0.088181786 -0.039147969 0.45400003
0.057881437 -0.037681203 0.44600001
0.058526848 -0.037596717 0.44500002
0.059302039 -0.037596717 0.44500002
0.060077228 -0.037596717 0.44500002
0.060715672 -0.037512232 0.44400004
0.061212141 -0.037343256 0.44200003
0.061982106 -0.037343256 0.44200003
0.062752068 -0.037343256 0.44200003
0.063522033 -0.037343256 0.44200003
0.064291999 -0.037343256 0.44200003
0.065061964 -0.037343256 0.44200003
0.065980867 -0.037427742 0.44300002
0.066903256 -0.037512232 0.44400004
0.067676701 -0.037512232 0.44400004
0.06860432 -0.037596717 0.44500002
0.069379508 -0.037596717 0.44500002
0.070154697 -0.037596717 0.44500002
0.070929892 -0.037596717 0.44500002
0.071866214 -0.037681203 0.44600001
0.072806023 -0.037765693 0.44700003
0.073584698 -0.037765693 0.44700003
0.07452973 -0.037850179 0.44800001
0.075310148 -0.037850179 0.44800001
0.07626041 -0.037934665 0.44900003
0.077042565 -0.037934665 0.44900003
0.077998057 -0.038019154 0.45000002
0.078957029 -0.03810364 0.45100003
0.07991948 -0.038188126 0.45200002
0.080706865 -0.038188126 0.45200002
0.081494249 -0.038188126 0.45200002
0.082463674 -0.038272612 0.45300001
0.083436579 -0.038357101 0.45400003
0.08422745 -0.038357101 0.45400003
0.085018314 -0.038357101 0.45400003
0.085809186 -0.038357101 0.45400003
0.08660005 -0.038357101 0.45400003
0.087583408 -0.038441587 0.45500001
0.088376023 -0.038441587 0.45500001
0.089168631 -0.038441587 0.45500001
0.057751659 -0.036821526 0.44500002
0.058526848 -0.036821526 0.44500002
0.059302039 -0.036821526 0.44500002
0.060077228 -0.036821526 0.44500002
0.060715672 -0.036738783 0.44400004
0.061350632 -0.036656037 0.44300002
0.061982106 -0.036573291 0.44200003
0.062752068 -0.036573291 0.44200003
0.063522033 -0.036573291 0.44200003
0.064291999 -0.036573291 0.44200003
0.065209158 -0.036656037 0.44300002
0.066129811 -0.036738783 0.44400004
0.066903256 -0.036738783 0.44400004
0.067829132 -0.036821526 0.44500002
0.06860432 -0.036821526 0.44500002
0.069379508 -0.036821526 0.44500002
0.070154697 -0.036821526 0.44500002
0.070929892 -0.036821526 0.44500002
0.071866214 -0.036904272 0.44600001
0.072806023 -0.036987018 0.44700003
0.073749319 -0.037069764 0.44800001
0.07452973 -0.037069764 0.44800001
0.075478248 -0.037152506 0.44900003
0.076430254 -0.037235253 0.45000002
0.077385738 -0.037317999 0.45100003
0.078171387 -0.037317999 0.45100003
0.078957029 -0.037317999 0.45100003
0.07991948 -0.037400741 0.45200002
0.080706865 -0.037400741 0.45200002
0.081854843 -0.037566233 0.45400003
0.082645714 -0.037566233 0.45400003
0.083436579 -0.037566233 0.45400003
0.08422745 -0.037566233 0.45400003
0.085205577 -0.037648976 0.45500001
0.085998192 -0.037648976 0.45500001
0.0867908 -0.037648976 0.45500001
0.087583408 -0.037648976 0.45500001
0.088376023 -0.037648976 0.45500001
0.058526848 -0.036046337 0.44500002
0.059302039 -0.036046337 0.44500002
0.060077228 -0.036046337 0.44500002
0.060715672 -0.035965335 0.44400004
0.06148912 -0.035965335 0.44400004
0.062262569 -0.035965335 0.44400004
0.063036017 -0.035965335 0.44400004
0.063665748 -0.035884332 0.44300002
0.064582914 -0.035965335 0.44400004
0.065356359 -0.035965335 0.44400004
0.066129811 -0.035965335 0.44400004
0.067053936 -0.036046337 0.44500002
0.067829132 -0.036046337 0.44500002
0.06860432 -0.036046337 0.44500002
0.069379508 -0.036046337 0.44500002
0.070154697 -0.036046337 0.44500002
0.071089283 -0.03612734 0.44600001
0.072188482 -0.036289345 0.44800001
0.0729689 -0.036289345 0.44800001
0.073913939 -0.036370348 0.44900003
0.074696094 -0.036370348 0.44900003
0.075478248 -0.036370348 0.44900003
0.076600097 -0.036532354 0.45100003
0.077557325 -0.03661336 0.45200002
0.07834471 -0.03661336 0.45200002
0.079132095 -0.03661336 0.45200002
0.07991948 -0.03661336 0.45200002
0.080706865 -0.03661336 0.45200002
0.081854843 -0.036775365 0.45400003
0.082645714 -0.036775365 0.45400003
0.083436579 -0.036775365 0.45400003
0.08441297 -0.036856368 0.45500001
0.085205577 -0.036856368 0.45500001
0.085998192 -0.036856368 0.45500001
0.0867908 -0.036856368 0.45500001
0.087583408 -0.036856368 0.45500001
0.088376023 -0.036856368 0.45500001
0.059302039 -0.035271145 0.44500002
0.060077228 -0.035271145 0.44500002
0.06085242 -0.035271145 0.44500002
0.06148912 -0.035191886 0.44400004
0.062262569 -0.035191886 0.44400004
0.063036017 -0.035191886 0.44400004
0.063809462 -0.035191886 0.44400004
0.064582914 -0.035191886 0.44400004
0.065356359 -0.035191886 0.44400004
0.066278748 -0.035271145 0.44500002
0.067053936 -0.035271145 0.44500002
0.067829132 -0.035271145 0.44500002
0.06860432 -0.035271145 0.44500002
0.069379508 -0.035271145 0.44500002
0.070312351 -0.035350408 0.44600001
0.071248673 -0.035429668 0.44700003
0.072349623 -0.03558819 0.44900003
0.073131777 -0.03558819 0.44900003
0.073913939 -0.03558819 0.44900003
0.074862458 -0.035667453 0.45000002
0.075646356 -0.035667453 0.45000002
0.076769948 -0.035825975 0.45200002
0.077557325 -0.035825975 0.45200002
0.07834471 -0.035825975 0.45200002
0.079307169 -0.035905235 0.45300001
0.080096297 -0.035905235 0.45300001
0.081063978 -0.035984498 0.45400003
0.081854843 -0.035984498 0.45400003
0.082827747 -0.036063757 0.45500001
0.083620362 -0.036063757 0.45500001
0.08441297 -0.036063757 0.45500001
0.085392848 -0.03614302 0.45600003
0.086187199 -0.03614302 0.45600003
0.08698155 -0.03614302 0.45600003
0.087968394 -0.036222279 0.45700002
0.060212232 -0.034573477 0.44600001
0.06085242 -0.034495957 0.44500002
0.06148912 -0.034418438 0.44400004
0.062262569 -0.034418438 0.44400004
0.063036017 -0.034418438 0.44400004
0.063809462 -0.034418438 0.44400004
0.064582914 -0.034418438 0.44400004
0.06550356 -0.034495957 0.44500002
0.066278748 -0.034495957 0.44500002
0.067204624 -0.034573477 0.44600001
0.067981556 -0.034573477 0.44600001
0.068758488 -0.034573477 0.44600001
0.069535419 -0.034573477 0.44600001
0.070469998 -0.034650996 0.44700003
0.071408071 -0.034728516 0.44800001
0.072349623 -0.034806032 0.44900003
0.073294654 -0.034883551 0.45000002
0.074243173 -0.034961071 0.45100003
0.075028814 -0.034961071 0.45100003
0.075982563 -0.03503859 0.45200002
0.076769948 -0.03503859 0.45200002
0.077557325 -0.03503859 0.45200002
0.07851804 -0.03511611 0.45300001
0.079482242 -0.03519363 0.45400003
0.080273107 -0.03519363 0.45400003
0.081063978 -0.03519363 0.45400003
0.082035139 -0.035271145 0.45500001
0.082827747 -0.035271145 0.45500001
0.083804138 -0.035348665 0.45600003
0.084784016 -0.035426185 0.45700002
0.085580111 -0.035426185 0.45700002
0.086376205 -0.035426185 0.45700002
0.0871723 -0.035426185 0.45700002
0.087968394 -0.035426185 0.45700002
0.059302039 -0.033720765 0.44500002
0.060077228 -0.033720765 0.44500002
0.06085242 -0.033720765 0.44500002
0.061627608 -0.033720765 0.44500002
0.0624028 -0.033720765 0.44500002
0.063177988 -0.033720765 0.44500002
0.063953176 -0.033720765 0.44500002
0.064728372 -0.033720765 0.44500002
0.06550356 -0.033720765 0.44500002
0.066427693 -0.033796545 0.44600001
0.067204624 -0.033796545 0.44600001
0.067981556 -0.033796545 0.44600001
0.068912655 -0.033872321 0.44700003
0.06969133 -0.033872321 0.44700003
0.070785306 -0.034023874 0.44900003
0.071567461 -0.034023874 0.44900003
0.07267189 -0.034175429 0.45100003
0.073457532 -0.034175429 0.45100003
0.074407794 -0.034251206 0.45200002
0.075195178 -0.034251206 0.45200002
0.075982563 -0.034251206 0.45200002
0.076769948 -0.034251206 0.45200002
0.077728912 -0.034326982 0.45300001
0.078691371 -0.034402762 0.45400003
0.079482242 -0.034402762 0.45400003
0.080273107 -0.034402762 0.45400003
0.081242532 -0.034478538 0.45500001
0.082035139 -0.034478538 0.45500001
0.083009787 -0.034554314 0.45600003
0.083987921 -0.03463009 0.45700002
0.084784016 -0.03463009 0.45700002
0.085580111 -0.03463009 0.45700002
0.086376205 -0.03463009 0.45700002
0.0871723 -0.03463009 0.45700002
0.087968394 -0.03463009 0.45700002
0.060077228 -0.032945577 0.44500002
0.06085242 -0.032945577 0.44500002
0.061627608 -0.032945577 0.44500002
0.0624028 -0.032945577 0.44500002
0.063177988 -0.032945577 0.44500002
0.063953176 -0.032945577 0.44500002
0.064873829 -0.033019613 0.44600001
0.065650761 -0.033019613 0.44600001
0.06657663 -0.033093646 0.44700003
0.067355305 -0.033093646 0.44700003
0.068286404 -0.033167683 0.44800001
0.069066823 -0.033167683 0.44800001
0.070003144 -0.033241715 0.44900003
0.070785306 -0.033241715 0.44900003
0.071726851 -0.033315752 0.45000002
0.07267189 -0.033389788 0.45100003
0.073457532 -0.033389788 0.45100003
0.074407794 -0.033463821 0.45200002
0.075195178 -0.033463821 0.45200002
0.076150663 -0.033537857 0.45300001
0.077109635 -0.033611894 0.45400003
0.077900507 -0.033611894 0.45400003
0.078691371 -0.033611894 0.45400003
0.079482242 -0.033611894 0.45400003
0.080449916 -0.033685926 0.45500001
0.081242532 -0.033685926 0.45500001
0.082215436 -0.033759963 0.45600003
0.083191827 -0.033833995 0.45700002
0.083987921 -0.033833995 0.45700002
0.084784016 -0.033833995 0.45700002
0.085580111 -0.033833995 0.45700002
0.086376205 -0.033833995 0.45700002
0.0871723 -0.033833995 0.45700002
0.087968394 -0.033833995 0.45700002
0.060077228 -0.032170389 0.44500002
0.06085242 -0.032170389 0.44500002
0.061766099 -0.032242682 0.44600001
0.062543027 -0.032242682 0.44600001
0.063319959 -0.032242682 0.44600001
0.06409689 -0.032242682 0.44600001
0.064873829 -0.032242682 0.44600001
0.065797955 -0.032314975 0.44700003
0.06657663 -0.032314975 0.44700003
0.067505985 -0.032387268 0.44800001
0.068286404 -0.032387268 0.44800001
0.06922099 -0.032459561 0.44900003
0.070003144 -0.032459561 0.44900003
0.070942953 -0.032531854 0.45000002
0.071886249 -0.032604147 0.45100003
0.072833024 -0.03267644 0.45200002
0.073620409 -0.03267644 0.45200002
0.074572414 -0.032748733 0.45300001
0.075527899 -0.032821026 0.45400003
0.076318763 -0.032821026 0.45400003
0.077109635 -0.032821026 0.45400003
0.077900507 -0.032821026 0.45400003
0.078864701 -0.032893319 0.45500001
0.079657309 -0.032893319 0.45500001
0.080449916 -0.032893319 0.45500001
0.081421085 -0.032965612 0.45600003
0.082395732 -0.033037905 0.45700002
0.083191827 -0.033037905 0.45700002
0.083987921 -0.033037905 0.45700002
0.084784016 -0.033037905 0.45700002
0.085580111 -0.033037905 0.45700002
0.060212232 -0.031465746 0.44600001
0.060989168 -0.031465746 0.44600001
0.061766099 -0.031465746 0.44600001
0.062543027 -0.031465746 0.44600001
0.063319959 -0.031465746 0.44600001
0.06409689 -0.031465746 0.44600001
0.06501928 -0.0315363 0.44700003
0.065797955 -0.0315363 0.44700003
0.066725574 -0.031606849 0.44800001
0.067505985 -0.031606849 0.44800001
0.068438828 -0.031677403 0.44900003
0.06922099 -0.031677403 0.44900003
0.070159055 -0.031747952 0.45000002
0.071100608 -0.031818502 0.45100003
0.071886249 -0.031818502 0.45100003
0.072833024 -0.031889055 0.45200002
0.073783286 -0.031959604 0.45300001
0.074737027 -0.032030158 0.45400003
0.075527899 -0.032030158 0.45400003
0.076318763 -0.032030158 0.45400003
0.077109635 -0.032030158 0.45400003
0.077900507 -0.032030158 0.45400003
0.078864701 -0.032100707 0.45500001
0.079657309 -0.032100707 0.45500001
0.080626734 -0.032171257 0.45600003
0.060212232 -0.030688817 0.44600001
0.061125912 -0.030757625 0.44700003
0.061766099 -0.030688817 0.44600001
0.062683262 -0.030757625 0.44700003
0.063461937 -0.030757625 0.44700003
0.064240612 -0.030757625 0.44700003
0.06501928 -0.030757625 0.44700003
0.065945156 -0.030826434 0.44800001
0.066874512 -0.030895242 0.44900003
0.067656673 -0.030895242 0.44900003
0.068438828 -0.030895242 0.44900003
0.069375157 -0.030964052 0.45000002
0.070314966 -0.03103286 0.45100003
0.071100608 -0.03103286 0.45100003
0.072045639 -0.03110167 0.45200002
0.072994158 -0.031170478 0.45300001
0.073946163 -0.031239288 0.45400003
0.074737027 -0.031239288 0.45400003
0.075694263 -0.031308096 0.45500001
0.076486871 -0.031308096 0.45500001
0.077279478 -0.031308096 0.45500001
0.078072093 -0.031308096 0.45500001
0.078864701 -0.031308096 0.45500001
0.06034724 -0.029978951 0.44700003
0.061125912 -0.029978951 0.44700003
0.061904587 -0.029978951 0.44700003
0.062683262 -0.029978951 0.44700003
0.063461937 -0.029978951 0.44700003
0.064384326 -0.030046018 0.44800001
0.065164737 -0.030046018 0.44800001
0.066092357 -0.030113084 0.44900003
0.066874512 -0.030113084 0.44900003
0.067807354 -0.030180153 0.45000002
0.068591252 -0.030180153 0.45000002
0.069529325 -0.030247219 0.45100003
0.07047087 -0.030314285 0.45200002
0.071258254 -0.030314285 0.45200002
0.072205037 -0.030381354 0.45300001
0.073155291 -0.03044842 0.45400003
0.073946163 -0.03044842 0.45400003
0.060482245 -0.029265601 0.44800001
0.061125912 -0.029200276 0.44700003
0.062043075 -0.029265601 0.44800001
0.062823489 -0.029265601 0.44800001
0.063603908 -0.029265601 0.44800001
0.064384326 -0.029265601 0.44800001
0.065310195 -0.029330926 0.44900003
0.066092357 -0.029330926 0.44900003
0.067023456 -0.029396253 0.45000002
0.067958035 -0.029461578 0.45100003
0.068743676 -0.029461578 0.45100003
0.069683485 -0.029526902 0.45200002
0.07047087 -0.029526902 0.45200002
0.071415909 -0.029592227 0.45300001
0.072205037 -0.029592227 0.45300001
0.060617249 -0.02854877 0.44900003
0.06126266 -0.028485186 0.44800001
0.062043075 -0.028485186 0.44800001
0.062823489 -0.028485186 0.44800001
0.063603908 -0.028485186 0.44800001
0.064384326 -0.028485186 0.44800001
0.065310195 -0.02854877 0.44900003
0.066239551 -0.028612351 0.45000002
0.067023456 -0.028612351 0.45000002
0.067958035 -0.028675934 0.45100003
0.068743676 -0.028675934 0.45100003
0.069683485 -0.028739518 0.45200002
0.060101617 -0.027890293 0.45100003
0.060752254 -0.027828451 0.45000002
0.061399408 -0.027766611 0.44900003
0.062181566 -0.027766611 0.44900003
0.062963724 -0.027766611 0.44900003
0.063745879 -0.027766611 0.44900003
0.064528041 -0.027766611 0.44900003
0.065310195 -0.027766611 0.44900003
0.066386752 -0.027890293 0.45100003
0.067172393 -0.027890293 0.45100003
0.067958035 -0.027890293 0.45100003
0.063103952 -0.027044551 0.45000002
0.063745879 -0.026984453 0.44900003
0.064671755 -0.027044551 0.45000002
-0.044955797 0.084206544 0.26200002
-0.046959966 0.084986091 0.26300001
-0.046325009 0.084662944 0.26200002
-0.045868605 0.084662944 0.26200002
-0.045412201 0.084662944 0.26200002
-0.044955797 0.084662944 0.26200002
-0.044499394 0.084662944 0.26200002
-0.047418114 0.085444234 0.26300001
-0.046959966 0.085444234 0.26300001
-0.046501823 0.085444234 0.26300001
-0.046043675 0.085444234 0.26300001
-0.045585528 0.085444234 0.26300001
-0.044955797 0.085119352 0.26200002
-0.047876261 0.085902378 0.26300001
-0.047418114 0.085902378 0.26300001
-0.046959966 0.085902378 0.26300001
-0.046501823 0.085902378 0.26300001
-0.046043675 0.085902378 0.26300001
-0.045585528 0.085902378 0.26300001
-0.045127384 0.085902378 0.26300001
-0.044669237 0.085902378 0.26300001
-0.044211093 0.085902378 0.26300001
-0.048334405 0.086360529 0.26300001
-0.047876261 0.086360529 0.26300001
-0.047418114 0.086360529 0.26300001
-0.046959966 0.086360529 0.26300001
-0.046501823 0.086360529 0.26300001
-0.046043675 0.086360529 0.26300001
-0.045585528 0.086360529 0.26300001
-0.045127384 0.086360529 0.26300001
-0.044669237 0.086360529 0.26300001
-0.044211093 0.086360529 0.26300001
-0.047418114 0.086818673 0.26300001
-0.046959966 0.086818673 0.26300001
-0.046501823 0.086818673 0.26300001
-0.046043675 0.086818673 0.26300001
-0.045585528 0.086818673 0.26300001
-0.045127384 0.086818673 0.26300001
-0.044669237 0.086818673 0.26300001
-0.044211093 0.086818673 0.26300001
-0.043752946 0.086818673 0.26300001
-0.043459419 0.087148778 0.264
-0.046959966 0.087276816 0.26300001
-0.046501823 0.087276816 0.26300001
-0.046043675 0.087276816 0.26300001
-0.045585528 0.087276816 0.26300001
-0.045127384 0.087276816 0.26300001
-0.044669237 0.087276816 0.26300001
-0.044211093 0.087276816 0.26300001
-0.043752946 0.087276816 0.26300001
-0.043459419 0.087608673 0.264
-0.046959966 0.087734967 0.26300001
-0.046501823 0.087734967 0.26300001
-0.046043675 0.087734967 0.26300001
-0.045585528 0.087734967 0.26300001
-0.045127384 0.087734967 0.26300001
-0.044669237 0.087734967 0.26300001
-0.044211093 0.087734967 0.26300001
-0.043752946 0.087734967 0.26300001
-0.043294799 0.087734967 0.26300001
-0.046959966 0.088193111 0.26300001
-0.046501823 0.088193111 0.26300001
-0.046043675 0.088193111 0.26300001
-0.045585528 0.088193111 0.26300001
-0.045127384 0.088193111 0.26300001
-0.044669237 0.088193111 0.26300001
-0.044211093 0.088193111 0.26300001
-0.043752946 0.088193111 0.26300001
-0.043294799 0.088193111 0.26300001
-0.046501823 0.088651255 0.26300001
