# .PCD v0.7 - Point Cloud Data file format
VERSION 0.7
FIELDS x y z
SIZE 4 4 4
TYPE F F F
COUNT 1 1 1
WIDTH 1335
HEIGHT 1
VIEWPOINT 0 0 0 1 0 0 0
POINTS 1335
DATA ascii
0.046924256 -0.054554217 0.43800002
0.04757838 -0.054429665 0.43700001
0.048339631 -0.054429665 0.43700001
0.048988529 -0.05430511 0.43600002
0.049748041 -0.05430511 0.43600002
0.050391708 -0.054180559 0.43500003
0.051031895 -0.054056004 0.43400002
0.05178792 -0.054056004 0.43400002
0.052543949 -0.054056004 0.43400002
0.053299978 -0.054056004 0.43400002
0.053931452 -0.053931452 0.43300003
0.054559443 -0.053806901 0.43200001
0.055311989 -0.053806901 0.43200001
0.056064531 -0.053806901 0.43200001
0.056685556 -0.053682346 0.43100002
0.057303093 -0.053557795 0.43000001
0.057917148 -0.053433239 0.42900002
0.058664467 -0.053433239 0.42900002
0.059411786 -0.053433239 0.42900002
0.060018871 -0.053308688 0.42800003
0.060764447 -0.053308688 0.42800003
0.061510023 -0.053308688 0.42800003
0.062110145 -0.053184133 0.42700002
0.062853977 -0.053184133 0.42700002
0.063448869 -0.053059582 0.42600003
0.064040281 -0.052935027 0.42500001
0.06478063 -0.052935027 0.42500001
0.065366812 -0.052810475 0.42400002
0.066105418 -0.052810475 0.42400002
0.066686377 -0.052685924 0.42300001
0.067423247 -0.052685924 0.42300001
0.067998976 -0.052561369 0.42200002
0.068896972 -0.052685924 0.42300001
0.045501914 -0.053914033 0.43900001
0.046266653 -0.053914033 0.43900001
0.046924256 -0.053791221 0.43800002
0.04757838 -0.05366841 0.43700001
0.048339631 -0.05366841 0.43700001
0.049100887 -0.05366841 0.43700001
0.049748041 -0.053545598 0.43600002
0.050391708 -0.05342279 0.43500003
0.05114948 -0.05342279 0.43500003
0.05178792 -0.053299978 0.43400002
0.052543949 -0.053299978 0.43400002
0.053299978 -0.053299978 0.43400002
0.054056004 -0.053299978 0.43400002
0.054685738 -0.053177167 0.43300003
0.055311989 -0.053054355 0.43200001
0.056064531 -0.053054355 0.43200001
0.056685556 -0.052931543 0.43100002
0.057436358 -0.052931543 0.43100002
0.058052152 -0.052808732 0.43000001
0.058801215 -0.052808732 0.43000001
0.059411786 -0.052685924 0.42900002
0.060159102 -0.052685924 0.42900002
0.060764447 -0.052563112 0.42800003
0.061510023 -0.052563112 0.42800003
0.062110145 -0.052440301 0.42700002
0.062853977 -0.052440301 0.42700002
0.063597813 -0.052440301 0.42700002
0.064190961 -0.052317489 0.42600003
0.06478063 -0.052194677 0.42500001
0.065520979 -0.052194677 0.42500001
0.066105418 -0.052071866 0.42400002
0.066844031 -0.052071866 0.42400002
0.067423247 -0.051949058 0.42300001
0.068160109 -0.051949058 0.42300001
0.069059849 -0.052071866 0.42400002
0.045605563 -0.053270362 0.44000003
0.046266653 -0.053149294 0.43900001
0.047031391 -0.053149294 0.43900001
0.047687251 -0.053028226 0.43800002
0.04845025 -0.053028226 0.43800002
0.049100887 -0.052907158 0.43700001
0.049862139 -0.052907158 0.43700001
0.050507553 -0.052786086 0.43600002
0.05114948 -0.052665018 0.43500003
0.051907249 -0.052665018 0.43500003
0.052543949 -0.052543949 0.43400002
0.053299978 -0.052543949 0.43400002
0.054056004 -0.052543949 0.43400002
0.054685738 -0.052422881 0.43300003
0.055440024 -0.052422881 0.43300003
0.056064531 -0.052301813 0.43200001
0.056817077 -0.052301813 0.43200001
0.057436358 -0.052180741 0.43100002
0.058187157 -0.052180741 0.43100002
0.058801215 -0.052059673 0.43000001
0.059550274 -0.052059673 0.43000001
0.060159102 -0.051938605 0.42900002
0.060906421 -0.051938605 0.42900002
0.061510023 -0.051817536 0.42800003
0.062255599 -0.051817536 0.42800003
0.062853977 -0.051696464 0.42700002
0.063597813 -0.051696464 0.42700002
0.064190961 -0.051575396 0.42600003
0.06478063 -0.051454328 0.42500001
0.065520979 -0.051454328 0.42500001
0.066261329 -0.051454328 0.42500001
0.066844031 -0.05133326 0.42400002
0.067582637 -0.05133326 0.42400002
0.068321243 -0.05133326 0.42400002
0.069222726 -0.051454328 0.42500001
0.045605563 -0.052503884 0.44000003
0.046372041 -0.052503884 0.44000003
0.047031391 -0.052384555 0.43900001
0.047796126 -0.052384555 0.43900001
0.04845025 -0.052265231 0.43800002
0.049213246 -0.052265231 0.43800002
0.049976241 -0.052265231 0.43800002
0.050623395 -0.052145902 0.43700001
0.051267061 -0.052026574 0.43600002
0.051907249 -0.051907249 0.43500003
0.052665018 -0.051907249 0.43500003
0.053299978 -0.05178792 0.43400002
0.054056004 -0.05178792 0.43400002
0.054812033 -0.05178792 0.43400002
0.055440024 -0.051668596 0.43300003
0.056194309 -0.051668596 0.43300003
0.056817077 -0.051549267 0.43200001
0.057569619 -0.051549267 0.43200001
0.058187157 -0.051429939 0.43100002
0.058937959 -0.051429939 0.43100002
0.059550274 -0.051310614 0.43000001
0.060299333 -0.051310614 0.43000001
0.060906421 -0.051191285 0.42900002
0.061653741 -0.051191285 0.42900002
0.062255599 -0.05107196 0.42800003
0.063001178 -0.05107196 0.42800003
0.063597813 -0.050952632 0.42700002
0.064341642 -0.050952632 0.42700002
0.064933054 -0.050833303 0.42600003
0.065520979 -0.050713979 0.42500001
0.066261329 -0.050713979 0.42500001
0.067001678 -0.050713979 0.42500001
0.067742027 -0.050713979 0.42500001
0.068482377 -0.050713979 0.42500001
0.069222726 -0.050713979 0.42500001
0.070127696 -0.050833303 0.42600003
0.044940989 -0.051854987 0.44100001
0.045709211 -0.051854987 0.44100001
0.046372041 -0.051737402 0.44000003
0.047138523 -0.051737402 0.44000003
0.047796126 -0.051619817 0.43900001
0.048560865 -0.051619817 0.43900001
0.049213246 -0.051502232 0.43800002
0.049976241 -0.051502232 0.43800002
0.050623395 -0.051384646 0.43700001
0.051267061 -0.051267061 0.43600002
0.052026574 -0.051267061 0.43600002
0.052786086 -0.051267061 0.43600002
0.05342279 -0.05114948 0.43500003
0.054056004 -0.051031895 0.43400002
0.054812033 -0.051031895 0.43400002
0.055568062 -0.051031895 0.43400002
0.056324091 -0.051031895 0.43400002
0.056817077 -0.050796725 0.43200001
0.057569619 -0.050796725 0.43200001
0.058322165 -0.050796725 0.43200001
0.058937959 -0.05067914 0.43100002
0.059688762 -0.05067914 0.43100002
0.060299333 -0.050561555 0.43000001
0.061048392 -0.050561555 0.43000001
0.061653741 -0.05044397 0.42900002
0.062401056 -0.05044397 0.42900002
0.063001178 -0.050326385 0.42800003
0.06374675 -0.050326385 0.42800003
0.064341642 -0.0502088 0.42700002
0.065085478 -0.0502088 0.42700002
0.065675147 -0.050091214 0.42600003
0.066261329 -0.049973629 0.42500001
0.067001678 -0.049973629 0.42500001
0.067742027 -0.049973629 0.42500001
0.068482377 -0.049973629 0.42500001
0.069385603 -0.050091214 0.42600003
0.070127696 -0.050091214 0.42600003
0.044940989 -0.051086765 0.44100001
0.045709211 -0.051086765 0.44100001
0.046477433 -0.051086765 0.44100001
0.047138523 -0.050970923 0.44000003
0.047905002 -0.050970923 0.44000003
0.048560865 -0.050855082 0.43900001
0.049325604 -0.050855082 0.43900001
0.050090343 -0.050855082 0.43900001
0.050739236 -0.050739236 0.43800002
0.051384646 -0.050623395 0.43700001
0.052145902 -0.050623395 0.43700001
0.052786086 -0.050507553 0.43600002
0.053545598 -0.050507553 0.43600002
0.054180559 -0.050391708 0.43500003
0.054812033 -0.050275866 0.43400002
0.055568062 -0.050275866 0.43400002
0.056324091 -0.050275866 0.43400002
0.056948595 -0.050160021 0.43300003
0.057569619 -0.050044179 0.43200001
0.058322165 -0.050044179 0.43200001
0.058937959 -0.049928337 0.43100002
0.059688762 -0.049928337 0.43100002
0.060299333 -0.049812492 0.43000001
0.061048392 -0.049812492 0.43000001
0.061653741 -0.04969665 0.42900002
0.062401056 -0.04969665 0.42900002
0.063001178 -0.049580809 0.42800003
0.06374675 -0.049580809 0.42800003
0.06449233 -0.049580809 0.42800003
0.065085478 -0.049464963 0.42700002
0.065829314 -0.049464963 0.42700002
0.06657315 -0.049464963 0.42700002
0.067159332 -0.049349122 0.42600003
0.067901425 -0.049349122 0.42600003
0.068643518 -0.049349122 0.42600003
0.06954848 -0.049464963 0.42700002
0.070292316 -0.049464963 0.42700002
0.044940989 -0.050318543 0.44100001
0.045709211 -0.050318543 0.44100001
0.046477433 -0.050318543 0.44100001
0.047245655 -0.050318543 0.44100001
0.047905002 -0.050204445 0.44000003
0.048671484 -0.050204445 0.44000003
0.049325604 -0.050090343 0.43900001
0.050090343 -0.050090343 0.43900001
0.050739236 -0.049976241 0.43800002
0.051502232 -0.049976241 0.43800002
0.052145902 -0.049862139 0.43700001
0.052907158 -0.049862139 0.43700001
0.05366841 -0.049862139 0.43700001
0.05430511 -0.049748041 0.43600002
0.054938328 -0.049633939 0.43500003
0.055568062 -0.049519837 0.43400002
0.056324091 -0.049519837 0.43400002
0.057080116 -0.049519837 0.43400002
0.057702884 -0.049405735 0.43300003
0.058322165 -0.049291637 0.43200001
0.059074707 -0.049291637 0.43200001
0.059688762 -0.049177535 0.43100002
0.060439564 -0.049177535 0.43100002
0.061048392 -0.049063433 0.43000001
0.061797455 -0.049063433 0.43000001
0.062401056 -0.048949331 0.42900002
0.063148372 -0.048949331 0.42900002
0.063895695 -0.048949331 0.42900002
0.06449233 -0.048835233 0.42800003
0.065237902 -0.048835233 0.42800003
0.065829314 -0.048721131 0.42700002
0.06657315 -0.048721131 0.42700002
0.067316979 -0.048721131 0.42700002
0.068060815 -0.048721131 0.42700002
0.068804651 -0.048721131 0.42700002
0.06954848 -0.048721131 0.42700002
0.070292316 -0.048721131 0.42700002
0.044940989 -0.049550321 0.44100001
0.045709211 -0.049550321 0.44100001
0.046477433 -0.049550321 0.44100001
0.047245655 -0.049550321 0.44100001
0.048013877 -0.049550321 0.44100001
0.048671484 -0.049437962 0.44000003
0.049437962 -0.049437962 0.44000003
0.050090343 -0.049325604 0.43900001
0.050855082 -0.049325604 0.43900001
0.051502232 -0.049213246 0.43800002
0.052265231 -0.049213246 0.43800002
0.053028226 -0.049213246 0.43800002
0.05366841 -0.049100887 0.43700001
0.05430511 -0.048988529 0.43600002
0.055064622 -0.048988529 0.43600002
0.0556961 -0.048876166 0.43500003
0.056324091 -0.048763808 0.43400002
0.057080116 -0.048763808 0.43400002
0.057702884 -0.048651449 0.43300003
0.058322165 -0.048539091 0.43200001
0.059074707 -0.048539091 0.43200001
0.059827253 -0.048539091 0.43200001
0.060439564 -0.048426732 0.43100002
0.061190367 -0.048426732 0.43100002
0.061941169 -0.048426732 0.43100002
0.062546514 -0.048314374 0.43000001
0.063148372 -0.048202015 0.42900002
0.063895695 -0.048202015 0.42900002
0.06449233 -0.048089653 0.42800003
0.065237902 -0.048089653 0.42800003
0.065983482 -0.048089653 0.42800003
0.06657315 -0.047977295 0.42700002
0.067316979 -0.047977295 0.42700002
0.068060815 -0.047977295 0.42700002
0.068804651 -0.047977295 0.42700002
0.069711357 -0.048089653 0.42800003
0.045042899 -0.048892718 0.44200003
0.04581286 -0.048892718 0.44200003
0.046582825 -0.048892718 0.44200003
0.047245655 -0.048782099 0.44100001
0.048013877 -0.048782099 0.44100001
0.048671484 -0.048671484 0.44000003
0.049437962 -0.048671484 0.44000003
0.050090343 -0.048560865 0.43900001
0.050855082 -0.048560865 0.43900001
0.051619817 -0.048560865 0.43900001
0.052265231 -0.04845025 0.43800002
0.053028226 -0.04845025 0.43800002
0.053791221 -0.04845025 0.43800002
0.054429665 -0.048339631 0.43700001
0.055190917 -0.048339631 0.43700001
0.055824134 -0.048229016 0.43600002
0.056453869 -0.048118398 0.43500003
0.057080116 -0.048007783 0.43400002
0.057836145 -0.048007783 0.43400002
0.05845717 -0.047897164 0.43300003
0.059074707 -0.047786549 0.43200001
0.059827253 -0.047786549 0.43200001
0.060579795 -0.047786549 0.43200001
0.061190367 -0.04767593 0.43100002
0.061941169 -0.04767593 0.43100002
0.062546514 -0.047565311 0.43000001
0.063295573 -0.047565311 0.43000001
0.063895695 -0.047454696 0.42900002
0.06464301 -0.047454696 0.42900002
0.065237902 -0.047344077 0.42800003
0.065983482 -0.047344077 0.42800003
0.066729054 -0.047344077 0.42800003
0.067474633 -0.047344077 0.42800003
0.068220206 -0.047344077 0.42800003
0.068965785 -0.047344077 0.42800003
0.069711357 -0.047344077 0.42800003
0.04581286 -0.048122752 0.44200003
0.046582825 -0.048122752 0.44200003
0.047245655 -0.048013877 0.44100001
0.048013877 -0.048013877 0.44100001
0.048782099 -0.048013877 0.44100001
0.049437962 -0.047905002 0.44000003
0.050204445 -0.047905002 0.44000003
0.050855082 -0.047796126 0.43900001
0.051619817 -0.047796126 0.43900001
0.052384555 -0.047796126 0.43900001
0.053149294 -0.047796126 0.43900001
0.053791221 -0.047687251 0.43800002
0.054554217 -0.047687251 0.43800002
0.055190917 -0.04757838 0.43700001
0.055952173 -0.04757838 0.43700001
0.056583647 -0.047469504 0.43600002
0.057211637 -0.047360629 0.43500003
0.057836145 -0.047251754 0.43400002
0.058592174 -0.047251754 0.43400002
0.059211455 -0.047142878 0.43300003
0.059827253 -0.047034003 0.43200001
0.060579795 -0.047034003 0.43200001
0.061332341 -0.047034003 0.43200001
0.061941169 -0.046925128 0.43100002
0.062691972 -0.046925128 0.43100002
0.063295573 -0.046816252 0.43000001
0.064044632 -0.046816252 0.43000001
0.06464301 -0.046707377 0.42900002
0.065390326 -0.046707377 0.42900002
0.066137649 -0.046707377 0.42900002
0.066729054 -0.046598502 0.42800003
0.067474633 -0.046598502 0.42800003
0.068220206 -0.046598502 0.42800003
0.068965785 -0.046598502 0.42800003
0.069711357 -0.046598502 0.42800003
0.045916509 -0.047459923 0.44300002
0.046582825 -0.047352787 0.44200003
0.047352787 -0.047352787 0.44200003
0.048122752 -0.047352787 0.44200003
0.048782099 -0.047245655 0.44100001
0.049550321 -0.047245655 0.44100001
0.050204445 -0.047138523 0.44000003
0.050970923 -0.047138523 0.44000003
0.051619817 -0.047031391 0.43900001
0.052384555 -0.047031391 0.43900001
0.053149294 -0.047031391 0.43900001
0.053914033 -0.047031391 0.43900001
0.054678772 -0.047031391 0.43900001
0.055317212 -0.046924256 0.43800002
0.055952173 -0.046817124 0.43700001
0.056583647 -0.046709992 0.43600002
0.057343159 -0.046709992 0.43600002
0.05796941 -0.046602856 0.43500003
0.058592174 -0.046495724 0.43400002
0.059211455 -0.046388593 0.43300003
0.059965741 -0.046388593 0.43300003
0.060579795 -0.046281461 0.43200001
0.061332341 -0.046281461 0.43200001
0.061941169 -0.046174325 0.43100002
0.062691972 -0.046174325 0.43100002
0.063442774 -0.046174325 0.43100002
0.064044632 -0.046067193 0.43000001
0.064793691 -0.046067193 0.43000001
0.065390326 -0.045960061 0.42900002
0.066137649 -0.045960061 0.42900002
0.066884965 -0.045960061 0.42900002
0.067474633 -0.045852926 0.42800003
0.068379603 -0.045960061 0.42900002
0.068965785 -0.045852926 0.42800003
0.045348618 -0.046898998 0.44500002
0.046020158 -0.046793606 0.44400004
0.046688218 -0.046688218 0.44300002
0.047459923 -0.046688218 0.44300002
0.048122752 -0.046582825 0.44200003
0.048782099 -0.046477433 0.44100001
0.049550321 -0.046477433 0.44100001
0.050204445 -0.046372041 0.44000003
0.050970923 -0.046372041 0.44000003
0.051737402 -0.046372041 0.44000003
0.052384555 -0.046266653 0.43900001
0.053149294 -0.046266653 0.43900001
0.053914033 -0.046266653 0.43900001
0.054678772 -0.046266653 0.43900001
0.055443507 -0.046266653 0.43900001
0.056080211 -0.04616126 0.43800002
0.056713428 -0.046055868 0.43700001
0.057343159 -0.04595048 0.43600002
0.05796941 -0.045845088 0.43500003
0.058727179 -0.045845088 0.43500003
0.059348203 -0.045739695 0.43400002
0.060104229 -0.045739695 0.43400002
0.060720026 -0.045634307 0.43300003
0.061332341 -0.045528915 0.43200001
0.062084883 -0.045528915 0.43200001
0.062837429 -0.045528915 0.43200001
0.063442774 -0.045423523 0.43100002
0.064044632 -0.045318134 0.43000001
0.064793691 -0.045318134 0.43000001
0.065542758 -0.045318134 0.43000001
0.066137649 -0.045212742 0.42900002
0.066884965 -0.045212742 0.42900002
0.06763228 -0.045212742 0.42900002
0.068379603 -0.045212742 0.42900002
0.069126919 -0.045212742 0.42900002
0.045348618 -0.046123806 0.44500002
0.046020158 -0.046020158 0.44400004
0.046793606 -0.046020158 0.44400004
0.047567055 -0.046020158 0.44400004
0.048340503 -0.046020158 0.44400004
0.048892718 -0.04581286 0.44200003
0.049550321 -0.045709211 0.44100001
0.050318543 -0.045709211 0.44100001
0.050970923 -0.045605563 0.44000003
0.051737402 -0.045605563 0.44000003
0.052503884 -0.045605563 0.44000003
0.053270362 -0.045605563 0.44000003
0.053914033 -0.045501914 0.43900001
0.054678772 -0.045501914 0.43900001
0.055443507 -0.045501914 0.43900001
0.056080211 -0.045398265 0.43800002
0.056713428 -0.045294616 0.43700001
0.05747468 -0.045294616 0.43700001
0.058102671 -0.045190968 0.43600002
0.058727179 -0.045087319 0.43500003
0.059348203 -0.04498367 0.43400002
0.060104229 -0.04498367 0.43400002
0.060860258 -0.04498367 0.43400002
0.061474312 -0.044880021 0.43300003
0.062084883 -0.044776373 0.43200001
0.062837429 -0.044776373 0.43200001
0.063589975 -0.044776373 0.43200001
0.064193577 -0.04467272 0.43100002
0.064793691 -0.044569071 0.43000001
0.065542758 -0.044569071 0.43000001
0.066291817 -0.044569071 0.43000001
0.067040876 -0.044569071 0.43000001
0.06763228 -0.044465423 0.42900002
0.068538994 -0.044569071 0.43000001
0.069288053 -0.044569071 0.43000001
0.070037112 -0.044569071 0.43000001
0.045348618 -0.045348618 0.44500002
0.046123806 -0.045348618 0.44500002
0.046793606 -0.045246709 0.44400004
0.047567055 -0.045246709 0.44400004
0.048340503 -0.045246709 0.44400004
0.049113952 -0.045246709 0.44400004
0.049775042 -0.045144804 0.44300002
0.050432645 -0.045042899 0.44200003
0.051086765 -0.044940989 0.44100001
0.051854987 -0.044940989 0.44100001
0.052503884 -0.044839084 0.44000003
0.053270362 -0.044839084 0.44000003
0.054036845 -0.044839084 0.44000003
0.054803323 -0.044839084 0.44000003
0.055443507 -0.044737175 0.43900001
0.056208245 -0.044737175 0.43900001
0.056843206 -0.04463527 0.43800002
0.057606202 -0.04463527 0.43800002
0.058235936 -0.044533361 0.43700001
0.058862183 -0.044431455 0.43600002
0.059484947 -0.044329546 0.43500003
0.060104229 -0.044227641 0.43400002
0.060860258 -0.044227641 0.43400002
0.061474312 -0.044125732 0.43300003
0.062084883 -0.044023827 0.43200001
0.062982887 -0.044125732 0.43300003
0.063589975 -0.044023827 0.43200001
0.064342514 -0.044023827 0.43200001
0.064944379 -0.043921921 0.43100002
0.065695181 -0.043921921 0.43100002
0.066291817 -0.043820012 0.43000001
0.067040876 -0.043820012 0.43000001
0.067789935 -0.043820012 0.43000001
0.068538994 -0.043820012 0.43000001
0.069449186 -0.043921921 0.43100002
0.045348618 -0.044573426 0.44500002
0.046123806 -0.044573426 0.44500002
0.046793606 -0.044473264 0.44400004
0.047674187 -0.044573426 0.44500002
0.048449378 -0.044573426 0.44500002
0.049113952 -0.044473264 0.44400004
0.049775042 -0.044373099 0.44300002
0.050432645 -0.044272933 0.44200003
0.051086765 -0.044172768 0.44100001
0.051854987 -0.044172768 0.44100001
0.052623209 -0.044172768 0.44100001
0.053391431 -0.044172768 0.44100001
0.054036845 -0.044072602 0.44000003
0.054803323 -0.044072602 0.44000003
0.055443507 -0.043972436 0.43900001
0.056208245 -0.043972436 0.43900001
0.056843206 -0.043872274 0.43800002
0.057606202 -0.043872274 0.43800002
0.058369197 -0.043872274 0.43800002
0.058997188 -0.043772109 0.43700001
0.059621695 -0.043671943 0.43600002
0.06024272 -0.043571778 0.43500003
0.060860258 -0.043471612 0.43400002
0.061616287 -0.043471612 0.43400002
0.062228598 -0.043371446 0.43300003
0.062982887 -0.043371446 0.43300003
0.063589975 -0.043271285 0.43200001
0.064342514 -0.043271285 0.43200001
0.06509506 -0.043271285 0.43200001
0.065695181 -0.043171119 0.43100002
0.066445984 -0.043171119 0.43100002
0.067196786 -0.043171119 0.43100002
0.067947589 -0.043171119 0.43100002
0.068698384 -0.043171119 0.43100002
0.069449186 -0.043171119 0.43100002
0.070199989 -0.043171119 0.43100002
0.044673592 -0.04389666 0.44600001
0.045450523 -0.04389666 0.44600001
0.046123806 -0.043798238 0.44500002
0.046898998 -0.043798238 0.44500002
0.047674187 -0.043798238 0.44500002
0.048449378 -0.043798238 0.44500002
0.049224567 -0.043798238 0.44500002
0.0498874 -0.043699816 0.44400004
0.050546747 -0.04360139 0.44300002
0.05120261 -0.043502968 0.44200003
0.051972572 -0.043502968 0.44200003
0.052623209 -0.043404546 0.44100001
0.053391431 -0.043404546 0.44100001
0.054036845 -0.043306123 0.44000003
0.054803323 -0.043306123 0.44000003
0.055569805 -0.043306123 0.44000003
0.056208245 -0.043207701 0.43900001
0.056972984 -0.043207701 0.43900001
0.057737723 -0.043207701 0.43900001
0.058369197 -0.043109275 0.43800002
0.058997188 -0.043010853 0.43700001
0.059758443 -0.043010853 0.43700001
0.060381208 -0.042912431 0.43600002
0.061000489 -0.042814009 0.43500003
0.061616287 -0.042715583 0.43400002
0.062228598 -0.042617161 0.43300003
0.063128345 -0.042715583 0.43400002
0.063737169 -0.042617161 0.43300003
0.064491458 -0.042617161 0.43300003
0.06509506 -0.042518739 0.43200001
0.065847605 -0.042518739 0.43200001
0.066445984 -0.042420316 0.43100002
0.067196786 -0.042420316 0.43100002
0.067947589 -0.042420316 0.43100002
0.068857782 -0.042518739 0.43200001
0.069610327 -0.042518739 0.43200001
0.070362866 -0.042518739 0.43200001
0.044873923 -0.04331309 0.44800001
0.045450523 -0.043119729 0.44600001
0.046227455 -0.043119729 0.44600001
0.046898998 -0.043023046 0.44500002
0.047674187 -0.043023046 0.44500002
0.048449378 -0.043023046 0.44500002
0.049224567 -0.043023046 0.44500002
0.0498874 -0.042926367 0.44400004
0.050660849 -0.042926367 0.44400004
0.051318452 -0.042829685 0.44300002
0.052090157 -0.042829685 0.44300002
0.052742537 -0.042733006 0.44200003
0.053391431 -0.042636324 0.44100001
0.054159656 -0.042636324 0.44100001
0.054803323 -0.042539641 0.44000003
0.055569805 -0.042539641 0.44000003
0.056336284 -0.042539641 0.44000003
0.056972984 -0.042442963 0.43900001
0.057737723 -0.042442963 0.43900001
0.058502462 -0.042442963 0.43900001
0.059132192 -0.04234628 0.43800002
0.059758443 -0.042249601 0.43700001
0.060381208 -0.042152919 0.43600002
0.06114072 -0.042152919 0.43600002
0.061758257 -0.042056236 0.43500003
0.062372316 -0.041959558 0.43400002
0.063128345 -0.041959558 0.43400002
0.06388437 -0.041959558 0.43400002
0.064491458 -0.041862875 0.43300003
0.06509506 -0.041766193 0.43200001
0.065847605 -0.041766193 0.43200001
0.066600151 -0.041766193 0.43200001
0.06735269 -0.041766193 0.43200001
0.068105236 -0.041766193 0.43200001
0.068857782 -0.041766193 0.43200001
0.069610327 -0.041766193 0.43200001
0.070362866 -0.041766193 0.43200001
0.044873923 -0.042532675 0.44800001
0.045552433 -0.042437736 0.44700003
0.046331108 -0.042437736 0.44700003
0.047004391 -0.042342797 0.44600001
0.047781322 -0.042342797 0.44600001
0.048449378 -0.042247858 0.44500002
0.049224567 -0.042247858 0.44500002
0.049999759 -0.042247858 0.44500002
0.050660849 -0.042152919 0.44400004
0.051434293 -0.042152919 0.44400004
0.052207742 -0.042152919 0.44400004
0.052861866 -0.04205798 0.44300002
0.053512502 -0.041963041 0.44200003
0.054159656 -0.041868102 0.44100001
0.054927878 -0.041868102 0.44100001
0.055569805 -0.041773163 0.44000003
0.056336284 -0.041773163 0.44000003
0.056972984 -0.041678224 0.43900001
0.057737723 -0.041678224 0.43900001
0.058502462 -0.041678224 0.43900001
0.059267201 -0.041678224 0.43900001
0.059895191 -0.041583285 0.43800002
0.060519695 -0.041488346 0.43700001
0.06114072 -0.041393407 0.43600002
0.061900232 -0.041393407 0.43600002
0.062516026 -0.041298468 0.43500003
0.063273802 -0.041298468 0.43500003
0.06388437 -0.041203529 0.43400002
0.064640395 -0.041203529 0.43400002
0.06524574 -0.04110859 0.43300003
0.065847605 -0.041013651 0.43200001
0.066600151 -0.041013651 0.43200001
0.06735269 -0.041013651 0.43200001
0.068105236 -0.041013651 0.43200001
0.068857782 -0.041013651 0.43200001
0.069610327 -0.041013651 0.43200001
0.070362866 -0.041013651 0.43200001
0.044873923 -0.04175226 0.44800001
0.045654338 -0.04175226 0.44800001
0.046434756 -0.04175226 0.44800001
0.047109779 -0.041659061 0.44700003
0.047781322 -0.041565865 0.44600001
0.048558254 -0.041565865 0.44600001
0.049335185 -0.041565865 0.44600001
0.049999759 -0.041472666 0.44500002
0.050774947 -0.041472666 0.44500002
0.051434293 -0.04137947 0.44400004
0.052207742 -0.04137947 0.44400004
0.05298119 -0.04137947 0.44400004
0.053633571 -0.041286275 0.44300002
0.054282464 -0.041193075 0.44200003
0.054927878 -0.04109988 0.44100001
0.0556961 -0.04109988 0.44100001
0.056336284 -0.041006684 0.44000003
0.057102762 -0.041006684 0.44000003
0.057869244 -0.041006684 0.44000003
0.058502462 -0.040913485 0.43900001
0.059267201 -0.040913485 0.43900001
0.060031936 -0.040913485 0.43900001
0.060519695 -0.04072709 0.43700001
0.061280951 -0.04072709 0.43700001
0.061900232 -0.040633895 0.43600002
0.06265974 -0.040633895 0.43600002
0.063273802 -0.040540699 0.43500003
0.06388437 -0.0404475 0.43400002
0.064640395 -0.0404475 0.43400002
0.065396428 -0.0404475 0.43400002
0.066000029 -0.040354304 0.43300003
0.066600151 -0.040261105 0.43200001
0.06735269 -0.040261105 0.43200001
0.068105236 -0.040261105 0.43200001
0.068857782 -0.040261105 0.43200001
0.069610327 -0.040261105 0.43200001
0.044974089 -0.041063298 0.44900003
0.045654338 -0.040971842 0.44800001
0.046434756 -0.040971842 0.44800001
0.047215171 -0.040971842 0.44800001
0.047888454 -0.040880386 0.44700003
0.048558254 -0.040788934 0.44600001
0.049335185 -0.040788934 0.44600001
0.049999759 -0.040697478 0.44500002
0.050774947 -0.040697478 0.44500002
0.051550139 -0.040697478 0.44500002
0.052325327 -0.040697478 0.44500002
0.05298119 -0.040606022 0.44400004
0.053754639 -0.040606022 0.44400004
0.054282464 -0.040423114 0.44200003
0.055052429 -0.040423114 0.44200003
0.0556961 -0.040331658 0.44100001
0.056464322 -0.040331658 0.44100001
0.057102762 -0.040240202 0.44000003
0.057869244 -0.040240202 0.44000003
0.058635723 -0.040240202 0.44000003
0.059267201 -0.040148746 0.43900001
0.060031936 -0.040148746 0.43900001
0.060796674 -0.040148746 0.43900001
0.061421182 -0.040057294 0.43800002
0.062042207 -0.039965838 0.43700001
0.06265974 -0.039874382 0.43600002
0.063273802 -0.039782926 0.43500003
0.064031571 -0.039782926 0.43500003
0.06478934 -0.039782926 0.43500003
0.065396428 -0.039691474 0.43400002
0.066152453 -0.039691474 0.43400002
0.066754319 -0.039600018 0.43300003
0.067508601 -0.039600018 0.43300003
0.06826289 -0.039600018 0.43300003
0.069017172 -0.039600018 0.43300003
0.043506451 -0.040370852 0.45000002
0.044290353 -0.040370852 0.45000002
0.044974089 -0.040281139 0.44900003
0.045756247 -0.040281139 0.44900003
0.046434756 -0.040191427 0.44800001
0.047215171 -0.040191427 0.44800001
0.047995586 -0.040191427 0.44800001
0.048667129 -0.040101714 0.44700003
0.049335185 -0.040012002 0.44600001
0.050112117 -0.040012002 0.44600001
0.050774947 -0.039922286 0.44500002
0.051550139 -0.039922286 0.44500002
0.052325327 -0.039922286 0.44500002
0.05298119 -0.039832573 0.44400004
0.053754639 -0.039832573 0.44400004
0.054405276 -0.039742861 0.44300002
0.055052429 -0.039653149 0.44200003
0.055822395 -0.039653149 0.44200003
0.056464322 -0.039563436 0.44100001
0.057102762 -0.039473724 0.44000003
0.057869244 -0.039473724 0.44000003
0.058635723 -0.039473724 0.44000003
0.059402205 -0.039473724 0.44000003
0.060031936 -0.039384011 0.43900001
0.060796674 -0.039384011 0.43900001
0.061421182 -0.039294295 0.43800002
0.062042207 -0.039204583 0.43700001
0.062803462 -0.039204583 0.43700001
0.063419253 -0.03911487 0.43600002
0.064178765 -0.03911487 0.43600002
0.06478934 -0.039025158 0.43500003
0.065547109 -0.039025158 0.43500003
0.066304877 -0.039025158 0.43500003
0.066908479 -0.038935445 0.43400002
0.067664512 -0.038935445 0.43400002
0.068420537 -0.038935445 0.43400002
0.06917657 -0.038935445 0.43400002
0.069932595 -0.038935445 0.43400002
0.044290353 -0.039586954 0.45000002
0.045074254 -0.039586954 0.45000002
0.045756247 -0.039498981 0.44900003
0.046538405 -0.039498981 0.44900003
0.047320563 -0.039498981 0.44900003
0.047995586 -0.039411012 0.44800001
0.048776004 -0.039411012 0.44800001
0.0494458 -0.039323039 0.44700003
0.050112117 -0.039235067 0.44600001
0.050889049 -0.039235067 0.44600001
0.051550139 -0.039147098 0.44500002
0.052325327 -0.039147098 0.44500002
0.053100519 -0.039147098 0.44500002
0.053875707 -0.039147098 0.44500002
0.054528087 -0.039059125 0.44400004
0.055176981 -0.038971156 0.44300002
0.055822395 -0.038883183 0.44200003
0.056592356 -0.038883183 0.44200003
0.057232544 -0.038795214 0.44100001
0.057869244 -0.038707241 0.44000003
0.058635723 -0.038707241 0.44000003
0.059402205 -0.038707241 0.44000003
0.060168684 -0.038707241 0.44000003
0.060796674 -0.038619272 0.43900001
0.061561413 -0.038619272 0.43900001
0.062326152 -0.038619272 0.43900001
0.062947176 -0.0385313 0.43800002
0.06356471 -0.038443331 0.43700001
0.064178765 -0.038355358 0.43600002
0.064938277 -0.038355358 0.43600002
0.065697789 -0.038355358 0.43600002
0.066304877 -0.038267389 0.43500003
0.067062646 -0.038267389 0.43500003
0.067820422 -0.038267389 0.43500003
0.068578191 -0.038267389 0.43500003
0.06933596 -0.038267389 0.43500003
0.070093729 -0.038267389 0.43500003
0.043603133 -0.038889281 0.45100003
0.044388775 -0.038889281 0.45100003
0.045174416 -0.038889281 0.45100003
0.045960061 -0.038889281 0.45100003
0.046642054 -0.038803052 0.45000002
0.047425952 -0.038803052 0.45000002
0.048102722 -0.038716823 0.44900003
0.048776004 -0.038630594 0.44800001
0.049556419 -0.038630594 0.44800001
0.050224476 -0.038544364 0.44700003
0.051003151 -0.038544364 0.44700003
0.05166598 -0.038458135 0.44600001
0.052442912 -0.038458135 0.44600001
0.053100519 -0.038371906 0.44500002
0.053875707 -0.038371906 0.44500002
0.054528087 -0.03828568 0.44400004
0.055301536 -0.03828568 0.44400004
0.05594869 -0.038199451 0.44300002
0.056592356 -0.038113222 0.44200003
0.057362322 -0.038113222 0.44200003
0.058000766 -0.038026992 0.44100001
0.058768988 -0.038026992 0.44100001
0.05953721 -0.038026992 0.44100001
0.060168684 -0.037940763 0.44000003
0.060935162 -0.037940763 0.44000003
0.061561413 -0.037854534 0.43900001
0.062326152 -0.037854534 0.43900001
0.063090891 -0.037854534 0.43900001
0.063710168 -0.037768304 0.43800002
0.064325966 -0.037682075 0.43700001
0.065087222 -0.037682075 0.43700001
0.065697789 -0.037595846 0.43600002
0.066457301 -0.037595846 0.43600002
0.067216814 -0.037595846 0.43600002
0.067976326 -0.037595846 0.43600002
0.068735838 -0.037595846 0.43600002
0.06949535 -0.037595846 0.43600002
0.070254862 -0.037595846 0.43600002
0.070851497 -0.037509616 0.43500003
0.071609266 -0.037509616 0.43500003
0.072200678 -0.037423387 0.43400002
0.042817492 -0.03810364 0.45100003
0.043603133 -0.03810364 0.45100003
0.044487197 -0.038188126 0.45200002
0.045174416 -0.03810364 0.45100003
0.045960061 -0.03810364 0.45100003
0.046745703 -0.03810364 0.45100003
0.047425952 -0.038019154 0.45000002
0.048102722 -0.037934665 0.44900003
0.04888488 -0.037934665 0.44900003
0.049556419 -0.037850179 0.44800001
0.050336834 -0.037850179 0.44800001
0.051003151 -0.037765693 0.44700003
0.051781826 -0.037765693 0.44700003
0.052442912 -0.037681203 0.44600001
0.053219844 -0.037681203 0.44600001
0.053875707 -0.037596717 0.44500002
0.054650899 -0.037596717 0.44500002
0.055301536 -0.037512232 0.44400004
0.056074984 -0.037512232 0.44400004
0.056720395 -0.037427742 0.44300002
0.057362322 -0.037343256 0.44200003
0.058000766 -0.03725877 0.44100001
0.058768988 -0.03725877 0.44100001
0.05953721 -0.03725877 0.44100001
0.060305431 -0.03725877 0.44100001
0.060935162 -0.037174281 0.44000003
0.061701644 -0.037174281 0.44000003
0.062326152 -0.037089795 0.43900001
0.063090891 -0.037089795 0.43900001
0.063855626 -0.037089795 0.43900001
0.064473167 -0.037005309 0.43800002
0.065087222 -0.036920823 0.43700001
0.065848477 -0.036920823 0.43700001
0.066457301 -0.036836334 0.43600002
0.067216814 -0.036836334 0.43600002
0.067976326 -0.036836334 0.43600002
0.068735838 -0.036836334 0.43600002
0.06949535 -0.036836334 0.43600002
0.070093729 -0.036751848 0.43500003
0.070851497 -0.036751848 0.43500003
0.071609266 -0.036751848 0.43500003
0.072200678 -0.036667362 0.43400002
0.041246209 -0.037317999 0.45100003
0.042031851 -0.037317999 0.45100003
0.042912431 -0.037400741 0.45200002
0.043699816 -0.037400741 0.45200002
0.044487197 -0.037400741 0.45200002
0.045274582 -0.037400741 0.45200002
0.046061967 -0.037400741 0.45200002
0.046745703 -0.037317999 0.45100003
0.047425952 -0.037235253 0.45000002
0.048209853 -0.037235253 0.45000002
0.04888488 -0.037152506 0.44900003
0.049556419 -0.037069764 0.44800001
0.050336834 -0.037069764 0.44800001
0.051117253 -0.037069764 0.44800001
0.051897667 -0.037069764 0.44800001
0.052560497 -0.036987018 0.44700003
0.053219844 -0.036904272 0.44600001
0.053996779 -0.036904272 0.44600001
0.054650899 -0.036821526 0.44500002
0.055426087 -0.036821526 0.44500002
0.056074984 -0.036738783 0.44400004
0.056848433 -0.036738783 0.44400004
0.0574921 -0.036656037 0.44300002
0.058132287 -0.036573291 0.44200003
0.058902249 -0.036573291 0.44200003
0.05953721 -0.036490548 0.44100001
0.060305431 -0.036490548 0.44100001
0.060935162 -0.036407802 0.44000003
0.061701644 -0.036407802 0.44000003
0.062468123 -0.036407802 0.44000003
0.063234605 -0.036407802 0.44000003
0.063855626 -0.036325056 0.43900001
0.064620368 -0.036325056 0.43900001
0.065236159 -0.036242314 0.43800002
0.065848477 -0.036159568 0.43700001
0.066457301 -0.036076821 0.43600002
0.067216814 -0.036076821 0.43600002
0.067976326 -0.036076821 0.43600002
0.068735838 -0.036076821 0.43600002
0.06949535 -0.036076821 0.43600002
0.070254862 -0.036076821 0.43600002
0.070851497 -0.035994079 0.43500003
0.071444653 -0.035911333 0.43400002
0.072200678 -0.035911333 0.43400002
0.072956704 -0.035911333 0.43400002
0.073712736 -0.035911333 0.43400002
0.074468762 -0.035911333 0.43400002
0.04300737 -0.036694363 0.45300001
0.043699816 -0.03661336 0.45200002
0.044585623 -0.036694363 0.45300001
0.045274582 -0.03661336 0.45200002
0.046061967 -0.03661336 0.45200002
0.046745703 -0.036532354 0.45100003
0.047531344 -0.036532354 0.45100003
0.048209853 -0.036451351 0.45000002
0.04888488 -0.036370348 0.44900003
0.049667034 -0.036370348 0.44900003
0.050449193 -0.036370348 0.44900003
0.051117253 -0.036289345 0.44800001
0.051897667 -0.036289345 0.44800001
0.052678082 -0.036289345 0.44800001
0.053339172 -0.036208343 0.44700003
0.054117847 -0.036208343 0.44700003
0.054773711 -0.03612734 0.44600001
0.055426087 -0.036046337 0.44500002
0.056201279 -0.036046337 0.44500002
0.056976467 -0.036046337 0.44500002
0.057621881 -0.035965335 0.44400004
0.058263808 -0.035884332 0.44300002
0.058902249 -0.035803329 0.44200003
0.059672214 -0.035803329 0.44200003
0.060305431 -0.035722326 0.44100001
0.061073653 -0.035722326 0.44100001
0.061701644 -0.035641324 0.44000003
0.062468123 -0.035641324 0.44000003
0.063234605 -0.035641324 0.44000003
0.064001083 -0.035641324 0.44000003
0.064620368 -0.035560321 0.43900001
0.065385103 -0.035560321 0.43900001
0.065848477 -0.035398312 0.43700001
0.066609733 -0.035398312 0.43700001
0.067370981 -0.035398312 0.43700001
0.068132237 -0.035398312 0.43700001
0.068735838 -0.035317309 0.43600002
0.06949535 -0.035317309 0.43600002
0.070254862 -0.035317309 0.43600002
0.070851497 -0.035236306 0.43500003
0.071609266 -0.035236306 0.43500003
0.072200678 -0.035155304 0.43400002
0.072956704 -0.035155304 0.43400002
0.073712736 -0.035155304 0.43400002
0.043796495 -0.035905235 0.45300001
0.044684045 -0.035984498 0.45400003
0.045374747 -0.035905235 0.45300001
0.046163876 -0.035905235 0.45300001
0.046849351 -0.035825975 0.45200002
0.047531344 -0.035746712 0.45100003
0.048316985 -0.035746712 0.45100003
0.048993751 -0.035667453 0.45000002
0.049667034 -0.03558819 0.44900003
0.050449193 -0.03558819 0.44900003
0.051231351 -0.03558819 0.44900003
0.052013509 -0.03558819 0.44900003
0.052678082 -0.035508931 0.44800001
0.053458501 -0.035508931 0.44800001
0.054238915 -0.035508931 0.44800001
0.054896519 -0.035429668 0.44700003
0.055550642 -0.035350408 0.44600001
0.056327574 -0.035350408 0.44600001
0.056976467 -0.035271145 0.44500002
0.057621881 -0.035191886 0.44400004
0.058395326 -0.035191886 0.44400004
0.059035514 -0.035112627 0.44300002
0.059672214 -0.035033364 0.44200003
0.060442179 -0.035033364 0.44200003
0.061073653 -0.034954105 0.44100001
0.061841875 -0.034954105 0.44100001
0.062468123 -0.034874842 0.44000003
0.063234605 -0.034874842 0.44000003
0.064001083 -0.034874842 0.44000003
0.064620368 -0.034795582 0.43900001
0.065385103 -0.034795582 0.43900001
0.065999158 -0.034716319 0.43800002
0.066762157 -0.034716319 0.43800002
0.067525148 -0.034716319 0.43800002
0.068132237 -0.03463706 0.43700001
0.068893492 -0.03463706 0.43700001
0.06949535 -0.034557797 0.43600002
0.070254862 -0.034557797 0.43600002
0.070851497 -0.034478538 0.43500003
0.071609266 -0.034478538 0.43500003
0.043893177 -0.03519363 0.45400003
0.044684045 -0.03519363 0.45400003
0.045474913 -0.03519363 0.45400003
0.046265781 -0.03519363 0.45400003
0.046849351 -0.03503859 0.45200002
0.047636736 -0.03503859 0.45200002
0.048316985 -0.034961071 0.45100003
0.049102627 -0.034961071 0.45100003
0.049777653 -0.034883551 0.45000002
0.050561555 -0.034883551 0.45000002
0.051231351 -0.034806032 0.44900003
0.052013509 -0.034806032 0.44900003
0.052795667 -0.034806032 0.44900003
0.053458501 -0.034728516 0.44800001
0.054238915 -0.034728516 0.44800001
0.054896519 -0.034650996 0.44700003
0.055550642 -0.034573477 0.44600001
0.056327574 -0.034573477 0.44600001
0.056976467 -0.034495957 0.44500002
0.057751659 -0.034495957 0.44500002
0.058395326 -0.034418438 0.44400004
0.059035514 -0.034340918 0.44300002
0.059672214 -0.034263398 0.44200003
0.060442179 -0.034263398 0.44200003
0.061073653 -0.034185883 0.44100001
0.061841875 -0.034185883 0.44100001
0.062610097 -0.034185883 0.44100001
0.063234605 -0.034108363 0.44000003
0.064001083 -0.034108363 0.44000003
0.064767562 -0.034108363 0.44000003
0.065385103 -0.034030844 0.43900001
0.066149838 -0.034030844 0.43900001
0.066914581 -0.034030844 0.43900001
0.067679316 -0.034030844 0.43900001
0.068444058 -0.034030844 0.43900001
0.069051139 -0.033953324 0.43800002
0.069654748 -0.033875804 0.43700001
0.043893177 -0.034402762 0.45400003
0.044684045 -0.034402762 0.45400003
0.045474913 -0.034402762 0.45400003
0.046265781 -0.034402762 0.45400003
0.046953 -0.034326982 0.45300001
0.047636736 -0.034251206 0.45200002
0.048424117 -0.034251206 0.45200002
0.049102627 -0.034175429 0.45100003
0.049888272 -0.034175429 0.45100003
0.050561555 -0.034099653 0.45000002
0.051345453 -0.034099653 0.45000002
0.052013509 -0.034023874 0.44900003
0.052795667 -0.034023874 0.44900003
0.053577825 -0.034023874 0.44900003
0.054238915 -0.033948097 0.44800001
0.05501933 -0.033948097 0.44800001
0.055675194 -0.033872321 0.44700003
0.056327574 -0.033796545 0.44600001
0.057104506 -0.033796545 0.44600001
0.057751659 -0.033720765 0.44500002
0.058526848 -0.033720765 0.44500002
0.059168775 -0.033644989 0.44400004
0.059807219 -0.033569213 0.44300002
0.060442179 -0.033493437 0.44200003
0.061212141 -0.033493437 0.44200003
0.061841875 -0.033417661 0.44100001
0.062610097 -0.033417661 0.44100001
0.063378319 -0.033417661 0.44100001
0.064146541 -0.033417661 0.44100001
0.064767562 -0.033341881 0.44000003
0.065534048 -0.033341881 0.44000003
0.066149838 -0.033266105 0.43900001
0.066914581 -0.033266105 0.43900001
0.067679316 -0.033266105 0.43900001
0.068444058 -0.033266105 0.43900001
0.069208793 -0.033266105 0.43900001
0.069654748 -0.033114552 0.43700001
0.043102309 -0.033611894 0.45400003
0.043893177 -0.033611894 0.45400003
0.044684045 -0.033611894 0.45400003
0.045474913 -0.033611894 0.45400003
0.046265781 -0.033611894 0.45400003
0.047056649 -0.033611894 0.45400003
0.047742125 -0.033537857 0.45300001
0.048424117 -0.033463821 0.45200002
0.049211502 -0.033463821 0.45200002
0.049888272 -0.033389788 0.45100003
0.050673913 -0.033389788 0.45100003
0.051459555 -0.033389788 0.45100003
0.052129354 -0.033315752 0.45000002
0.052795667 -0.033241715 0.44900003
0.053577825 -0.033241715 0.44900003
0.054359984 -0.033241715 0.44900003
0.055142142 -0.033241715 0.44900003
0.055799749 -0.033167683 0.44800001
0.056453869 -0.033093646 0.44700003
0.057104506 -0.033019613 0.44600001
0.057881437 -0.033019613 0.44600001
0.058526848 -0.032945577 0.44500002
0.059168775 -0.032871541 0.44400004
0.059942223 -0.032871541 0.44400004
0.060578924 -0.032797508 0.44300002
0.061212141 -0.032723472 0.44200003
0.061982106 -0.032723472 0.44200003
0.062752068 -0.032723472 0.44200003
0.063378319 -0.032649439 0.44100001
0.064146541 -0.032649439 0.44100001
0.064914763 -0.032649439 0.44100001
0.065534048 -0.032575402 0.44000003
0.066300526 -0.032575402 0.44000003
0.067067005 -0.032575402 0.44000003
0.067833483 -0.032575402 0.44000003
0.068599962 -0.032575402 0.44000003
0.069366448 -0.032575402 0.44000003
0.069973528 -0.032501366 0.43900001
0.043893177 -0.032821026 0.45400003
0.044782467 -0.032893319 0.45500001
0.045575079 -0.032893319 0.45500001
0.046265781 -0.032821026 0.45400003
0.047056649 -0.032821026 0.45400003
0.047847517 -0.032821026 0.45400003
0.048531253 -0.032748733 0.45300001
0.049211502 -0.03267644 0.45200002
0.049998887 -0.03267644 0.45200002
0.050673913 -0.032604147 0.45100003
0.051459555 -0.032604147 0.45100003
0.052245196 -0.032604147 0.45100003
0.052913252 -0.032531854 0.45000002
0.053577825 -0.032459561 0.44900003
0.054359984 -0.032459561 0.44900003
0.055142142 -0.032459561 0.44900003
0.055799749 -0.032387268 0.44800001
0.056580164 -0.032387268 0.44800001
0.057360578 -0.032387268 0.44800001
0.058011215 -0.032314975 0.44700003
0.058658369 -0.032242682 0.44600001
0.059302039 -0.032170389 0.44500002
0.060077228 -0.032170389 0.44500002
0.060715672 -0.032098092 0.44400004
0.061350632 -0.032025799 0.44300002
0.061982106 -0.031953506 0.44200003
0.062752068 -0.031953506 0.44200003
0.063522033 -0.031953506 0.44200003
0.064291999 -0.031953506 0.44200003
0.064914763 -0.031881213 0.44100001
0.065682985 -0.031881213 0.44100001
0.066300526 -0.03180892 0.44000003
0.067067005 -0.03180892 0.44000003
0.067833483 -0.03180892 0.44000003
0.068755873 -0.031881213 0.44100001
0.069366448 -0.03180892 0.44000003
0.04398986 -0.032100707 0.45500001
0.044782467 -0.032100707 0.45500001
0.045575079 -0.032100707 0.45500001
0.046367686 -0.032100707 0.45500001
0.047056649 -0.032030158 0.45400003
0.047847517 -0.032030158 0.45400003
0.048638385 -0.032030158 0.45400003
0.049211502 -0.031889055 0.45200002
0.049998887 -0.031889055 0.45200002
0.050786272 -0.031889055 0.45200002
0.051459555 -0.031818502 0.45100003
0.052245196 -0.031818502 0.45100003
0.052913252 -0.031747952 0.45000002
0.053697154 -0.031747952 0.45000002
0.054359984 -0.031677403 0.44900003
0.055142142 -0.031677403 0.44900003
0.0559243 -0.031677403 0.44900003
0.056580164 -0.031606849 0.44800001
0.057360578 -0.031606849 0.44800001
0.058011215 -0.0315363 0.44700003
0.058658369 -0.031465746 0.44600001
0.059435301 -0.031465746 0.44600001
0.060077228 -0.031395197 0.44500002
0.06085242 -0.031395197 0.44500002
0.06148912 -0.031324647 0.44400004
0.062122338 -0.031254094 0.44300002
0.062894046 -0.031254094 0.44300002
0.063522033 -0.031183545 0.44200003
0.064291999 -0.031183545 0.44200003
0.064914763 -0.031112993 0.44100001
0.065682985 -0.031112993 0.44100001
0.066451207 -0.031112993 0.44100001
0.067219429 -0.031112993 0.44100001
0.067987651 -0.031112993 0.44100001
0.068755873 -0.031112993 0.44100001
0.069524094 -0.031112993 0.44100001
0.070132926 -0.031042442 0.44000003
0.047847517 -0.031239288 0.45400003
0.048638385 -0.031239288 0.45400003
0.049320377 -0.031170478 0.45300001
0.049998887 -0.03110167 0.45200002
0.050786272 -0.03110167 0.45200002
0.051573656 -0.03110167 0.45200002
0.052245196 -0.03103286 0.45100003
0.053030837 -0.03103286 0.45100003
0.053816479 -0.03103286 0.45100003
0.054481052 -0.030964052 0.45000002
0.055142142 -0.030895242 0.44900003
0.0559243 -0.030895242 0.44900003
0.056580164 -0.030826434 0.44800001
0.057360578 -0.030826434 0.44800001
0.058011215 -0.030757625 0.44700003
0.058658369 -0.030688817 0.44600001
0.059435301 -0.030688817 0.44600001
0.060077228 -0.030620007 0.44500002
0.06085242 -0.030620007 0.44500002
0.06148912 -0.030551197 0.44400004
0.062262569 -0.030551197 0.44400004
0.062894046 -0.030482389 0.44300002
0.063665748 -0.030482389 0.44300002
0.064291999 -0.030413579 0.44200003
0.065061964 -0.030413579 0.44200003
0.065682985 -0.030344771 0.44100001
0.066451207 -0.030344771 0.44100001
0.067219429 -0.030344771 0.44100001
0.067987651 -0.030344771 0.44100001
0.068755873 -0.030344771 0.44100001
0.069524094 -0.030344771 0.44100001
0.070132926 -0.030275961 0.44000003
0.071060538 -0.030344771 0.44100001
0.071991637 -0.030413579 0.44200003
0.050109506 -0.030381354 0.45300001
0.050786272 -0.030314285 0.45200002
0.051573656 -0.030314285 0.45200002
0.052361038 -0.030314285 0.45200002
0.053030837 -0.030247219 0.45100003
0.053816479 -0.030247219 0.45100003
0.054602124 -0.030247219 0.45100003
0.055264954 -0.030180153 0.45000002
0.0559243 -0.030113084 0.44900003
0.056706458 -0.030113084 0.44900003
0.057360578 -0.030046018 0.44800001
0.058140997 -0.030046018 0.44800001
0.05878989 -0.029978951 0.44700003
0.059435301 -0.029911883 0.44600001
0.060212232 -0.029911883 0.44600001
0.060989168 -0.029911883 0.44600001
0.061627608 -0.029844817 0.44500002
0.0624028 -0.029844817 0.44500002
0.063036017 -0.02977775 0.44400004
0.063665748 -0.029710682 0.44300002
0.064437456 -0.029710682 0.44300002
0.065061964 -0.029643616 0.44200003
0.065682985 -0.029576549 0.44100001
0.066451207 -0.029576549 0.44100001
0.067219429 -0.029576549 0.44100001
0.067987651 -0.029576549 0.44100001
0.068755873 -0.029576549 0.44100001
0.069524094 -0.029576549 0.44100001
0.071991637 -0.029643616 0.44200003
0.051573656 -0.029526902 0.45200002
0.052361038 -0.029526902 0.45200002
0.053148422 -0.029526902 0.45200002
0.053935807 -0.029526902 0.45200002
0.054602124 -0.029461578 0.45100003
0.055387765 -0.029461578 0.45100003
0.056048855 -0.029396253 0.45000002
0.056706458 -0.029330926 0.44900003
0.057488617 -0.029330926 0.44900003
0.058140997 -0.029265601 0.44800001
0.058921412 -0.029265601 0.44800001
0.059568565 -0.029200276 0.44700003
0.060212232 -0.029134952 0.44600001
0.060989168 -0.029134952 0.44600001
0.061766099 -0.029134952 0.44600001
0.0624028 -0.029069627 0.44500002
0.063036017 -0.029004302 0.44400004
0.063809462 -0.029004302 0.44400004
0.064437456 -0.028938977 0.44300002
0.065061964 -0.028873652 0.44200003
0.065831929 -0.028873652 0.44200003
0.066601887 -0.028873652 0.44200003
0.067219429 -0.028808327 0.44100001
0.068141818 -0.028873652 0.44200003
0.068755873 -0.028808327 0.44100001
0.069524094 -0.028808327 0.44100001
0.054602124 -0.028675934 0.45100003
0.055387765 -0.028675934 0.45100003
0.056048855 -0.028612351 0.45000002
0.056706458 -0.02854877 0.44900003
0.057488617 -0.02854877 0.44900003
0.058140997 -0.028485186 0.44800001
0.058921412 -0.028485186 0.44800001
0.059701826 -0.028485186 0.44800001
0.06034724 -0.028421603 0.44700003
0.061125912 -0.028421603 0.44700003
0.061766099 -0.02835802 0.44600001
0.062543027 -0.02835802 0.44600001
0.063177988 -0.028294437 0.44500002
0.063809462 -0.028230853 0.44400004
0.064582914 -0.028230853 0.44400004
0.065061964 -0.028103687 0.44200003
0.065831929 -0.028103687 0.44200003
0.066601887 -0.028103687 0.44200003
0.067371853 -0.028103687 0.44200003
0.068141818 -0.028103687 0.44200003
0.068911783 -0.028103687 0.44200003
0.069681749 -0.028103687 0.44200003
0.056832753 -0.027828451 0.45000002
0.057488617 -0.027766611 0.44900003
0.058140997 -0.02770477 0.44800001
0.058921412 -0.02770477 0.44800001
0.059701826 -0.02770477 0.44800001
0.06034724 -0.027642928 0.44700003
0.061125912 -0.027642928 0.44700003
0.061904587 -0.027642928 0.44700003
0.062543027 -0.027581088 0.44600001
0.063319959 -0.027581088 0.44600001
0.063953176 -0.027519247 0.44500002
0.064728372 -0.027519247 0.44500002
0.065356359 -0.027457405 0.44400004
0.065980867 -0.027395565 0.44300002
0.066752575 -0.027395565 0.44300002
0.067524277 -0.027395565 0.44300002
0.068450153 -0.027457405 0.44400004
0.069067694 -0.027395565 0.44300002
0.058270775 -0.026984453 0.44900003
0.059052933 -0.026984453 0.44900003
0.059701826 -0.026924353 0.44800001
0.060482245 -0.026924353 0.44800001
0.06126266 -0.026924353 0.44800001
0.062043075 -0.026924353 0.44800001
0.062683262 -0.026864255 0.44700003
0.063319959 -0.026804157 0.44600001
0.06409689 -0.026804157 0.44600001
0.064728372 -0.026744056 0.44500002
0.06550356 -0.026744056 0.44500002
0.066129811 -0.026683958 0.44400004
0.066903256 -0.026683958 0.44400004
0.067676701 -0.026683958 0.44400004
0.068450153 -0.026683958 0.44400004
0.069067694 -0.026623858 0.44300002
0.059052933 -0.026202295 0.44900003
