# .PCD v0.7 - Point Cloud Data file format
VERSION 0.7
FIELDS x y z
SIZE 4 4 4
TYPE F F F
COUNT 1 1 1
WIDTH 1337
HEIGHT 1
VIEWPOINT 0 0 0 1 0 0 0
POINTS 1337
DATA ascii
0.080186009 -0.082704939 0.48200002
0.071938507 -0.082035139 0.48300001
0.072779894 -0.082035139 0.48300001
0.07362128 -0.082035139 0.48300001
0.0743085 -0.081865296 0.48200002
0.075148143 -0.081865296 0.48200002
0.075987786 -0.081865296 0.48200002
0.076827429 -0.081865296 0.48200002
0.077667072 -0.081865296 0.48200002
0.078506716 -0.081865296 0.48200002
0.079346366 -0.081865296 0.48200002
0.07094992 -0.081025653 0.48200002
0.071938507 -0.081193753 0.48300001
0.072629213 -0.081025653 0.48200002
0.073468857 -0.081025653 0.48200002
0.0743085 -0.081025653 0.48200002
0.075148143 -0.081025653 0.48200002
0.075987786 -0.081025653 0.48200002
0.076827429 -0.081025653 0.48200002
0.077667072 -0.081025653 0.48200002
0.078506716 -0.081025653 0.48200002
0.079346366 -0.081025653 0.48200002
0.079853281 -0.080689445 0.48000002
0.081185915 -0.080353238 0.47800002
0.082018591 -0.080353238 0.47800002
0.070110276 -0.080186009 0.48200002
0.07094992 -0.080186009 0.48200002
0.07178957 -0.080186009 0.48200002
0.072629213 -0.080186009 0.48200002
0.073468857 -0.080186009 0.48200002
0.0743085 -0.080186009 0.48200002
0.075148143 -0.080186009 0.48200002
0.075987786 -0.080186009 0.48200002
0.076668039 -0.080019645 0.48100004
0.077667072 -0.080186009 0.48200002
0.078343838 -0.080019645 0.48100004
0.079017125 -0.079853281 0.48000002
0.079853281 -0.079853281 0.48000002
0.080521345 -0.079686925 0.47900003
0.081185915 -0.079520561 0.47800002
0.082018591 -0.079520561 0.47800002
0.082851268 -0.079520561 0.47800002
0.066197746 -0.078687884 0.47800002
0.067030422 -0.078687884 0.47800002
0.067863099 -0.078687884 0.47800002
0.068695776 -0.078687884 0.47800002
0.069528453 -0.078687884 0.47800002
0.070655525 -0.079017125 0.48000002
0.071640626 -0.079181746 0.48100004
0.072478525 -0.079181746 0.48100004
0.073164001 -0.079017125 0.48000002
0.074000165 -0.079017125 0.48000002
0.074992232 -0.079181746 0.48100004
0.075830139 -0.079181746 0.48100004
0.076508641 -0.079017125 0.48000002
0.077344805 -0.079017125 0.48000002
0.078180961 -0.079017125 0.48000002
0.079017125 -0.079017125 0.48000002
0.079853281 -0.079017125 0.48000002
0.080521345 -0.078852504 0.47900003
0.081185915 -0.078687884 0.47800002
0.082018591 -0.078687884 0.47800002
0.082851268 -0.078687884 0.47800002
0.083683945 -0.078687884 0.47800002
0.084162995 -0.07835865 0.47600001
0.084992185 -0.07835865 0.47600001
0.085821375 -0.07835865 0.47600001
0.065365069 -0.077855214 0.47800002
0.066197746 -0.077855214 0.47800002
0.067030422 -0.077855214 0.47800002
0.067863099 -0.077855214 0.47800002
0.068695776 -0.077855214 0.47800002
0.069528453 -0.077855214 0.47800002
0.070508324 -0.078018084 0.47900003
0.071193799 -0.077855214 0.47800002
0.072177164 -0.078018084 0.47900003
0.073011577 -0.078018084 0.47900003
0.073845997 -0.078018084 0.47900003
0.074524507 -0.077855214 0.47800002
0.075514831 -0.078018084 0.47900003
0.076508641 -0.078180961 0.48000002
0.077183671 -0.078018084 0.47900003
0.078180961 -0.078180961 0.48000002
0.078852504 -0.078018084 0.47900003
0.079686925 -0.078018084 0.47900003
0.080353238 -0.077855214 0.47800002
0.081185915 -0.077855214 0.47800002
0.082018591 -0.077855214 0.47800002
0.082851268 -0.077855214 0.47800002
0.083683945 -0.077855214 0.47800002
0.084339805 -0.077692337 0.47700003
0.085170738 -0.077692337 0.47700003
0.086001672 -0.077692337 0.47700003
0.086650573 -0.07752946 0.47600001
0.087479763 -0.07752946 0.47600001
0.065365069 -0.077022538 0.47800002
0.066197746 -0.077022538 0.47800002
0.066890188 -0.076861396 0.47700003
0.067863099 -0.077022538 0.47800002
0.068695776 -0.077022538 0.47800002
0.069528453 -0.077022538 0.47800002
0.07036113 -0.077022538 0.47800002
0.071193799 -0.077022538 0.47800002
0.072026476 -0.077022538 0.47800002
0.072859153 -0.077022538 0.47800002
0.07369183 -0.077022538 0.47800002
0.074524507 -0.077022538 0.47800002
0.075357184 -0.077022538 0.47800002
0.076189861 -0.077022538 0.47800002
0.077022538 -0.077022538 0.47800002
0.078018084 -0.077183671 0.47900003
0.078687884 -0.077022538 0.47800002
0.079520561 -0.077022538 0.47800002
0.080353238 -0.077022538 0.47800002
0.081185915 -0.077022538 0.47800002
0.082018591 -0.077022538 0.47800002
0.082851268 -0.077022538 0.47800002
0.083508871 -0.076861396 0.47700003
0.084162995 -0.076700263 0.47600001
0.084992185 -0.076700263 0.47600001
0.085821375 -0.076700263 0.47600001
0.086650573 -0.076700263 0.47600001
0.087479763 -0.076700263 0.47600001
0.088308953 -0.076700263 0.47600001
0.088763617 -0.076377995 0.47400004
0.089400314 -0.076216862 0.47300002
0.090033531 -0.076055728 0.47200003
0.066059254 -0.076030463 0.47700003
0.066890188 -0.076030463 0.47700003
0.067721128 -0.076030463 0.47700003
0.068695776 -0.076189861 0.47800002
0.069382995 -0.076030463 0.47700003
0.070213929 -0.076030463 0.47700003
0.071044862 -0.076030463 0.47700003
0.071875796 -0.076030463 0.47700003
0.072706729 -0.076030463 0.47700003
0.07369183 -0.076189861 0.47800002
0.074368596 -0.076030463 0.47700003
0.07519953 -0.076030463 0.47700003
0.076189861 -0.076189861 0.47800002
0.077022538 -0.076189861 0.47800002
0.077855214 -0.076189861 0.47800002
0.078687884 -0.076189861 0.47800002
0.079520561 -0.076189861 0.47800002
0.080185138 -0.076030463 0.47700003
0.081185915 -0.076189861 0.47800002
0.082018591 -0.076189861 0.47800002
0.082677938 -0.076030463 0.47700003
0.083333798 -0.075871073 0.47600001
0.084162995 -0.075871073 0.47600001
0.084992185 -0.075871073 0.47600001
0.085821375 -0.075871073 0.47600001
0.086650573 -0.075871073 0.47600001
0.087295979 -0.075711682 0.47500002
0.087937906 -0.075552285 0.47400004
0.088763617 -0.075552285 0.47400004
0.089400314 -0.075392894 0.47300002
0.090033531 -0.075233504 0.47200003
0.091677979 -0.075233504 0.47200003
0.06592077 -0.075041883 0.47600001
0.06674996 -0.075041883 0.47600001
0.06757915 -0.075041883 0.47600001
0.068552062 -0.07519953 0.47700003
0.069237538 -0.075041883 0.47600001
0.070066728 -0.075041883 0.47600001
0.070895918 -0.075041883 0.47600001
0.071725115 -0.075041883 0.47600001
0.072554305 -0.075041883 0.47600001
0.073537663 -0.07519953 0.47700003
0.074212685 -0.075041883 0.47600001
0.075041883 -0.075041883 0.47600001
0.075871073 -0.075041883 0.47600001
0.076861396 -0.07519953 0.47700003
0.077692337 -0.07519953 0.47700003
0.078523271 -0.07519953 0.47700003
0.07918784 -0.075041883 0.47600001
0.08001703 -0.075041883 0.47600001
0.081016071 -0.07519953 0.47700003
0.081847005 -0.07519953 0.47700003
0.082504608 -0.075041883 0.47600001
0.083333798 -0.075041883 0.47600001
0.083986178 -0.074884228 0.47500002
0.084813632 -0.074884228 0.47500002
0.085641079 -0.074884228 0.47500002
0.086468533 -0.074884228 0.47500002
0.087112196 -0.074726582 0.47400004
0.087937906 -0.074726582 0.47400004
0.088389084 -0.074411273 0.47200003
0.089400314 -0.074568927 0.47300002
0.090033531 -0.074411273 0.47200003
0.091677979 -0.074411273 0.47200003
0.06592077 -0.074212685 0.47600001
0.06674996 -0.074212685 0.47600001
0.06757915 -0.074212685 0.47600001
0.068408348 -0.074212685 0.47600001
0.069237538 -0.074212685 0.47600001
0.069919527 -0.074056782 0.47500002
0.070895918 -0.074212685 0.47600001
0.071574427 -0.074056782 0.47500002
0.072554305 -0.074212685 0.47600001
0.073383495 -0.074212685 0.47600001
0.074056782 -0.074056782 0.47500002
0.074884228 -0.074056782 0.47500002
0.075871073 -0.074212685 0.47600001
0.076700263 -0.074212685 0.47600001
0.07752946 -0.074212685 0.47600001
0.07835865 -0.074212685 0.47600001
0.07918784 -0.074212685 0.47600001
0.08001703 -0.074212685 0.47600001
0.080846228 -0.074212685 0.47600001
0.081675418 -0.074212685 0.47600001
0.082504608 -0.074212685 0.47600001
0.083158731 -0.074056782 0.47500002
0.083986178 -0.074056782 0.47500002
0.084635079 -0.073900871 0.47400004
0.085460782 -0.073900871 0.47400004
0.086286493 -0.073900871 0.47400004
0.08692842 -0.07374496 0.47300002
0.087752387 -0.07374496 0.47300002
0.088389084 -0.073589049 0.47200003
0.089211307 -0.073589049 0.47200003
0.090033531 -0.073589049 0.47200003
0.090855755 -0.073589049 0.47200003
0.091677979 -0.073589049 0.47200003
0.092500202 -0.073589049 0.47200003
0.09312471 -0.073433146 0.47100002
0.060996134 -0.072458498 0.47000003
0.061814874 -0.072458498 0.47000003
0.062633611 -0.072458498 0.47000003
0.063452356 -0.072458498 0.47000003
0.064271092 -0.072458498 0.47000003
0.065089837 -0.072458498 0.47000003
0.065908574 -0.072458498 0.47000003
0.06715323 -0.072920993 0.47300002
0.068120912 -0.07307516 0.47400004
0.068946622 -0.07307516 0.47400004
0.069772333 -0.07307516 0.47400004
0.070598036 -0.07307516 0.47400004
0.071423747 -0.07307516 0.47400004
0.072249457 -0.07307516 0.47400004
0.07307516 -0.07307516 0.47400004
0.073900871 -0.07307516 0.47400004
0.074726582 -0.07307516 0.47400004
0.075711682 -0.073229328 0.47500002
0.076539129 -0.073229328 0.47500002
0.077366583 -0.073229328 0.47500002
0.07819403 -0.073229328 0.47500002
0.07885512 -0.07307516 0.47400004
0.07968083 -0.07307516 0.47400004
0.080506533 -0.07307516 0.47400004
0.081332244 -0.07307516 0.47400004
0.081984624 -0.072920993 0.47300002
0.082808591 -0.072920993 0.47300002
0.083809368 -0.07307516 0.47400004
0.084456518 -0.072920993 0.47300002
0.085280485 -0.072920993 0.47300002
0.086104453 -0.072920993 0.47300002
0.08692842 -0.072920993 0.47300002
0.08756686 -0.072766826 0.47200003
0.088389084 -0.072766826 0.47200003
0.089211307 -0.072766826 0.47200003
0.090033531 -0.072766826 0.47200003
0.090855755 -0.072766826 0.47200003
0.091677979 -0.072766826 0.47200003
0.092500202 -0.072766826 0.47200003
0.093322434 -0.072766826 0.47200003
0.094144657 -0.072766826 0.47200003
0.060177393 -0.071639754 0.47000003
0.060996134 -0.071639754 0.47000003
0.061814874 -0.071639754 0.47000003
0.062633611 -0.071639754 0.47000003
0.063452356 -0.071639754 0.47000003
0.064271092 -0.071639754 0.47000003
0.065089837 -0.071639754 0.47000003
0.065908574 -0.071639754 0.47000003
0.066727318 -0.071639754 0.47000003
0.067689769 -0.071792178 0.47100002
0.068655707 -0.071944602 0.47200003
0.069477931 -0.071944602 0.47200003
0.070449099 -0.072097026 0.47300002
0.071273066 -0.072097026 0.47300002
0.072097026 -0.072097026 0.47300002
0.07307516 -0.072249457 0.47400004
0.073589049 -0.071944602 0.47200003
0.074726582 -0.072249457 0.47400004
0.075552285 -0.072249457 0.47400004
0.076377995 -0.072249457 0.47400004
0.077040829 -0.072097026 0.47300002
0.077700175 -0.071944602 0.47200003
0.078522399 -0.071944602 0.47200003
0.079344623 -0.071944602 0.47200003
0.08033669 -0.072097026 0.47300002
0.08098907 -0.071944602 0.47200003
0.081811294 -0.071944602 0.47200003
0.082633518 -0.071944602 0.47200003
0.083455741 -0.071944602 0.47200003
0.084277965 -0.071944602 0.47200003
0.085100189 -0.071944602 0.47200003
0.085922413 -0.071944602 0.47200003
0.086744636 -0.071944602 0.47200003
0.087381341 -0.071792178 0.47100002
0.088389084 -0.071944602 0.47200003
0.089211307 -0.071944602 0.47200003
0.089842781 -0.071792178 0.47100002
0.090663269 -0.071792178 0.47100002
0.091677979 -0.071944602 0.47200003
0.092500202 -0.071944602 0.47200003
0.093322434 -0.071944602 0.47200003
0.094144657 -0.071944602 0.47200003
0.094966881 -0.071944602 0.47200003
0.095789105 -0.071944602 0.47200003
0.058415361 -0.070670329 0.46900001
0.059232358 -0.070670329 0.46900001
0.060049355 -0.070670329 0.46900001
0.060866356 -0.070670329 0.46900001
0.061814874 -0.070821017 0.47000003
0.062633611 -0.070821017 0.47000003
0.063452356 -0.070821017 0.47000003
0.064271092 -0.070821017 0.47000003
0.065089837 -0.070821017 0.47000003
0.065908574 -0.070821017 0.47000003
0.066727318 -0.070821017 0.47000003
0.067546055 -0.070821017 0.47000003
0.068364792 -0.070821017 0.47000003
0.069183536 -0.070821017 0.47000003
0.070002273 -0.070821017 0.47000003
0.071122378 -0.071122378 0.47200003
0.071944602 -0.071122378 0.47200003
0.072766826 -0.071122378 0.47200003
0.073589049 -0.071122378 0.47200003
0.074095972 -0.070821017 0.47000003
0.075233504 -0.071122378 0.47200003
0.075894587 -0.070971698 0.47100002
0.076715074 -0.070971698 0.47100002
0.077370934 -0.070821017 0.47000003
0.078189678 -0.070821017 0.47000003
0.079008415 -0.070821017 0.47000003
0.079997003 -0.070971698 0.47100002
0.080817483 -0.070971698 0.47100002
0.081637964 -0.070971698 0.47100002
0.082458444 -0.070971698 0.47100002
0.083455741 -0.071122378 0.47200003
0.084277965 -0.071122378 0.47200003
0.085100189 -0.071122378 0.47200003
0.085740373 -0.070971698 0.47100002
0.086560853 -0.070971698 0.47100002
0.087195814 -0.070821017 0.47000003
0.088014558 -0.070821017 0.47000003
0.089022301 -0.070971698 0.47100002
0.089842781 -0.070971698 0.47100002
0.090663269 -0.070971698 0.47100002
0.091677979 -0.071122378 0.47200003
0.092500202 -0.071122378 0.47200003
0.093322434 -0.071122378 0.47200003
0.094144657 -0.071122378 0.47200003
0.094966881 -0.071122378 0.47200003
0.056418158 -0.069406509 0.46600002
0.05735274 -0.069555454 0.46700001
0.058290809 -0.069704391 0.46800002
0.059106063 -0.069704391 0.46800002
0.059921321 -0.069704391 0.46800002
0.060736574 -0.069704391 0.46800002
0.061683353 -0.069853336 0.46900001
0.06250035 -0.069853336 0.46900001
0.063452356 -0.070002273 0.47000003
0.064271092 -0.070002273 0.47000003
0.064951345 -0.069853336 0.46900001
0.065908574 -0.070002273 0.47000003
0.066727318 -0.070002273 0.47000003
0.067546055 -0.070002273 0.47000003
0.068364792 -0.070002273 0.47000003
0.069036335 -0.069853336 0.46900001
0.069853336 -0.069853336 0.46900001
0.070670329 -0.069853336 0.46900001
0.071639754 -0.070002273 0.47000003
0.072458498 -0.070002273 0.47000003
0.073277235 -0.070002273 0.47000003
0.073938325 -0.069853336 0.46900001
0.074914716 -0.070002273 0.47000003
0.075572319 -0.069853336 0.46900001
0.07638932 -0.069853336 0.46900001
0.077206314 -0.069853336 0.46900001
0.078023314 -0.069853336 0.46900001
0.078840315 -0.069853336 0.46900001
0.079657309 -0.069853336 0.46900001
0.080645896 -0.070002273 0.47000003
0.081464633 -0.070002273 0.47000003
0.082283378 -0.070002273 0.47000003
0.083278932 -0.070151217 0.47100002
0.083920859 -0.070002273 0.47000003
0.084739596 -0.070002273 0.47000003
0.085558333 -0.070002273 0.47000003
0.086377077 -0.070002273 0.47000003
0.087195814 -0.070002273 0.47000003
0.088014558 -0.070002273 0.47000003
0.088833295 -0.070002273 0.47000003
0.089652039 -0.070002273 0.47000003
0.090663269 -0.070151217 0.47100002
0.091677979 -0.070300154 0.47200003
0.092500202 -0.070300154 0.47200003
0.093322434 -0.070300154 0.47200003
0.094144657 -0.070300154 0.47200003
0.094966881 -0.070300154 0.47200003
0.095789105 -0.070300154 0.47200003
0.055606384 -0.068594739 0.46600002
0.056418158 -0.068594739 0.46600002
0.057229929 -0.068594739 0.46600002
0.058166254 -0.06874194 0.46700001
0.059106063 -0.068889134 0.46800002
0.059921321 -0.068889134 0.46800002
0.060736574 -0.068889134 0.46800002
0.061551832 -0.068889134 0.46800002
0.06250035 -0.069036335 0.46900001
0.063317351 -0.069036335 0.46900001
0.064134344 -0.069036335 0.46900001
0.064951345 -0.069036335 0.46900001
0.065768346 -0.069036335 0.46900001
0.06658534 -0.069036335 0.46900001
0.06740234 -0.069036335 0.46900001
0.068219334 -0.069036335 0.46900001
0.068889134 -0.068889134 0.46800002
0.069704391 -0.068889134 0.46800002
0.070368968 -0.06874194 0.46700001
0.071334906 -0.068889134 0.46800002
0.071995996 -0.06874194 0.46700001
0.072965413 -0.068889134 0.46800002
0.073623024 -0.06874194 0.46700001
0.074436538 -0.06874194 0.46700001
0.075250052 -0.06874194 0.46700001
0.076063566 -0.06874194 0.46700001
0.07687708 -0.06874194 0.46700001
0.07785695 -0.068889134 0.46800002
0.078672208 -0.068889134 0.46800002
0.079487465 -0.068889134 0.46800002
0.080645896 -0.069183536 0.47000003
0.081464633 -0.069183536 0.47000003
0.082283378 -0.069183536 0.47000003
0.083102114 -0.069183536 0.47000003
0.083920859 -0.069183536 0.47000003
0.084739596 -0.069183536 0.47000003
0.0853763 -0.069036335 0.46900001
0.08600951 -0.068889134 0.46800002
0.086824767 -0.068889134 0.46800002
0.087640025 -0.068889134 0.46800002
0.088455282 -0.068889134 0.46800002
0.089461289 -0.069036335 0.46900001
0.090470776 -0.069183536 0.47000003
0.091483749 -0.069330737 0.47100002
0.092500202 -0.069477931 0.47200003
0.093322434 -0.069477931 0.47200003
0.094144657 -0.069477931 0.47200003
0.094765678 -0.069330737 0.47100002
0.095586158 -0.069330737 0.47100002
0.054677028 -0.067637511 0.46500003
0.055487059 -0.067637511 0.46500003
0.05629709 -0.067637511 0.46500003
0.057229929 -0.067782968 0.46600002
0.058041703 -0.067782968 0.46600002
0.058979768 -0.067928426 0.46700001
0.059793282 -0.067928426 0.46700001
0.060606796 -0.067928426 0.46700001
0.061551832 -0.068073884 0.46800002
0.062367089 -0.068073884 0.46800002
0.063182347 -0.068073884 0.46800002
0.064134344 -0.068219334 0.46900001
0.064812854 -0.068073884 0.46800002
0.065628111 -0.068073884 0.46800002
0.066443369 -0.068073884 0.46800002
0.067258626 -0.068073884 0.46800002
0.068073884 -0.068073884 0.46800002
0.06874194 -0.067928426 0.46700001
0.069555454 -0.067928426 0.46700001
0.070368968 -0.067928426 0.46700001
0.071030058 -0.067782968 0.46600002
0.071841829 -0.067782968 0.46600002
0.072653599 -0.067782968 0.46600002
0.07346537 -0.067782968 0.46600002
0.07411775 -0.067637511 0.46500003
0.075088918 -0.067782968 0.46600002
0.075900689 -0.067782968 0.46600002
0.076712459 -0.067782968 0.46600002
0.07752423 -0.067782968 0.46600002
0.078504108 -0.067928426 0.46700001
0.079317622 -0.067928426 0.46700001
0.080302723 -0.068073884 0.46800002
0.08111798 -0.068073884 0.46800002
0.082108304 -0.068219334 0.46900001
0.082925305 -0.068219334 0.46900001
0.083563745 -0.068073884 0.46800002
0.084379002 -0.068073884 0.46800002
0.08501222 -0.067928426 0.46700001
0.085825734 -0.067928426 0.46700001
0.086639248 -0.067928426 0.46700001
0.087452762 -0.067928426 0.46700001
0.088266276 -0.067928426 0.46700001
0.08927054 -0.068073884 0.46800002
0.090278283 -0.068219334 0.46900001
0.091289513 -0.068364792 0.47000003
0.09230423 -0.068510249 0.47100002
0.09312471 -0.068510249 0.47100002
0.093945198 -0.068510249 0.47100002
0.094765678 -0.068510249 0.47100002
0.053751156 -0.066683762 0.46400002
0.054559443 -0.066683762 0.46400002
0.055367731 -0.066683762 0.46400002
0.056176018 -0.066683762 0.46400002
0.057107117 -0.066827476 0.46500003
0.057917148 -0.066827476 0.46500003
0.058853474 -0.066971198 0.46600002
0.059665244 -0.066971198 0.46600002
0.060477018 -0.066971198 0.46600002
0.061288789 -0.066971198 0.46600002
0.062100563 -0.066971198 0.46600002
0.063047342 -0.067114912 0.46700001
0.063997597 -0.067258626 0.46800002
0.06467437 -0.067114912 0.46700001
0.065628111 -0.067258626 0.46800002
0.066301398 -0.067114912 0.46700001
0.066971198 -0.066971198 0.46600002
0.067928426 -0.067114912 0.46700001
0.068594739 -0.066971198 0.46600002
0.069406509 -0.066971198 0.46600002
0.07021828 -0.066971198 0.46600002
0.071030058 -0.066971198 0.46600002
0.071687661 -0.066827476 0.46500003
0.072497688 -0.066827476 0.46500003
0.07346537 -0.066971198 0.46600002
0.07411775 -0.066827476 0.46500003
0.074927777 -0.066827476 0.46500003
0.075737812 -0.066827476 0.46500003
0.076547839 -0.066827476 0.46500003
0.07752423 -0.066971198 0.46600002
0.0781679 -0.066827476 0.46500003
0.079147778 -0.066971198 0.46600002
0.079787962 -0.066827476 0.46500003
0.08077132 -0.066971198 0.46600002
0.081408016 -0.066827476 0.46500003
0.082218051 -0.066827476 0.46500003
0.083028078 -0.066827476 0.46500003
0.083838113 -0.066827476 0.46500003
0.08464814 -0.066827476 0.46500003
0.08564195 -0.066971198 0.46600002
0.086453721 -0.066971198 0.46600002
0.087265499 -0.066971198 0.46600002
0.088266276 -0.067114912 0.46700001
0.08927054 -0.067258626 0.46800002
0.090085797 -0.067258626 0.46800002
0.090901047 -0.067258626 0.46800002
0.092108257 -0.067546055 0.47000003
0.092926994 -0.067546055 0.47000003
0.093745738 -0.067546055 0.47000003
0.094564475 -0.067546055 0.47000003
0.051215675 -0.0657335 0.46300003
0.052022219 -0.0657335 0.46300003
0.052828766 -0.0657335 0.46300003
0.053635314 -0.0657335 0.46300003
0.054441858 -0.0657335 0.46300003
0.055367731 -0.065875478 0.46400002
0.056176018 -0.065875478 0.46400002
0.057107117 -0.066017449 0.46500003
0.057917148 -0.066017449 0.46500003
0.058727179 -0.066017449 0.46500003
0.05953721 -0.066017449 0.46500003
0.06034724 -0.066017449 0.46500003
0.061157268 -0.066017449 0.46500003
0.061967298 -0.066017449 0.46500003
0.062777326 -0.066017449 0.46500003
0.06358736 -0.066017449 0.46500003
0.064397387 -0.066017449 0.46500003
0.065347649 -0.06615942 0.46600002
0.06615942 -0.06615942 0.46600002
0.066827476 -0.066017449 0.46500003
0.067782968 -0.06615942 0.46600002
0.068594739 -0.06615942 0.46600002
0.069257572 -0.066017449 0.46500003
0.07021828 -0.06615942 0.46600002
0.070877627 -0.066017449 0.46500003
0.071687661 -0.066017449 0.46500003
0.072497688 -0.066017449 0.46500003
0.073307723 -0.066017449 0.46500003
0.07411775 -0.066017449 0.46500003
0.074927777 -0.066017449 0.46500003
0.075737812 -0.066017449 0.46500003
0.076547839 -0.066017449 0.46500003
0.077357873 -0.066017449 0.46500003
0.0781679 -0.066017449 0.46500003
0.078977928 -0.066017449 0.46500003
0.079787962 -0.066017449 0.46500003
0.080597989 -0.066017449 0.46500003
0.081408016 -0.066017449 0.46500003
0.082041234 -0.065875478 0.46400002
0.082849525 -0.065875478 0.46400002
0.083838113 -0.066017449 0.46500003
0.08464814 -0.066017449 0.46500003
0.085458167 -0.066017449 0.46500003
0.086453721 -0.06615942 0.46600002
0.087265499 -0.06615942 0.46600002
0.088077269 -0.06615942 0.46600002
0.08927054 -0.066443369 0.46800002
0.090085797 -0.066443369 0.46800002
0.091095284 -0.06658534 0.46900001
0.092108257 -0.066727318 0.47000003
0.09312471 -0.066869289 0.47100002
0.093945198 -0.066869289 0.47100002
0.050300252 -0.064786725 0.46200001
0.051215675 -0.06492696 0.46300003
0.05190986 -0.064786725 0.46200001
0.052714664 -0.064786725 0.46200001
0.053635314 -0.06492696 0.46300003
0.054441858 -0.06492696 0.46300003
0.055248406 -0.06492696 0.46300003
0.05605495 -0.06492696 0.46300003
0.056984309 -0.065067187 0.46400002
0.057792597 -0.065067187 0.46400002
0.058600884 -0.065067187 0.46400002
0.059409171 -0.065067187 0.46400002
0.060217459 -0.065067187 0.46400002
0.061025746 -0.065067187 0.46400002
0.061834037 -0.065067187 0.46400002
0.062507316 -0.06492696 0.46300003
0.063313864 -0.06492696 0.46300003
0.064120412 -0.06492696 0.46300003
0.06492696 -0.06492696 0.46300003
0.0657335 -0.06492696 0.46300003
0.066540048 -0.06492696 0.46300003
0.067346595 -0.06492696 0.46300003
0.068153143 -0.06492696 0.46300003
0.069108628 -0.065067187 0.46400002
0.069916919 -0.065067187 0.46400002
0.070572779 -0.06492696 0.46300003
0.071533494 -0.065067187 0.46400002
0.072341777 -0.065067187 0.46400002
0.073150069 -0.065067187 0.46400002
0.07395836 -0.065067187 0.46400002
0.074766643 -0.065067187 0.46400002
0.075737812 -0.065207422 0.46500003
0.076383218 -0.065067187 0.46400002
0.077357873 -0.065207422 0.46500003
0.0779998 -0.065067187 0.46400002
0.078808084 -0.065067187 0.46400002
0.079616375 -0.065067187 0.46400002
0.080424659 -0.065067187 0.46400002
0.08123295 -0.065067187 0.46400002
0.081864424 -0.06492696 0.46300003
0.082670972 -0.06492696 0.46300003
0.083657816 -0.065067187 0.46400002
0.08464814 -0.065207422 0.46500003
0.085458167 -0.065207422 0.46500003
0.086268201 -0.065207422 0.46500003
0.087265499 -0.065347649 0.46600002
0.088077269 -0.065347649 0.46600002
0.08907979 -0.065487884 0.46700001
0.090085797 -0.065628111 0.46800002
0.090901047 -0.065628111 0.46800002
0.092108257 -0.065908574 0.47000003
0.09312471 -0.066048808 0.47100002
0.094144657 -0.066189036 0.47200003
0.048479863 -0.063704945 0.46000001
0.049281184 -0.063704945 0.46000001
0.050191376 -0.063843437 0.46100003
0.050994441 -0.063843437 0.46100003
0.051797502 -0.063843437 0.46100003
0.052600563 -0.063843437 0.46100003
0.053519469 -0.06398192 0.46200001
0.054324273 -0.06398192 0.46200001
0.055248406 -0.064120412 0.46300003
0.05605495 -0.064120412 0.46300003
0.056861497 -0.064120412 0.46300003
0.057668041 -0.064120412 0.46300003
0.058474589 -0.064120412 0.46300003
0.059281133 -0.064120412 0.46300003
0.060087681 -0.064120412 0.46300003
0.060894229 -0.064120412 0.46300003
0.061700772 -0.064120412 0.46300003
0.062372316 -0.06398192 0.46200001
0.063177116 -0.06398192 0.46200001
0.06398192 -0.06398192 0.46200001
0.064786725 -0.06398192 0.46200001
0.065591529 -0.06398192 0.46200001
0.066396333 -0.06398192 0.46200001
0.067201138 -0.06398192 0.46200001
0.068005942 -0.06398192 0.46200001
0.068810746 -0.06398192 0.46200001
0.069766231 -0.064120412 0.46300003
0.070420355 -0.06398192 0.46200001
0.071379326 -0.064120412 0.46300003
0.072341777 -0.064258903 0.46400002
0.073150069 -0.064258903 0.46400002
0.07395836 -0.064258903 0.46400002
0.074766643 -0.064258903 0.46400002
0.075574934 -0.064258903 0.46400002
0.076383218 -0.064258903 0.46400002
0.077191509 -0.064258903 0.46400002
0.077831693 -0.064120412 0.46300003
0.078638241 -0.064120412 0.46300003
0.079444788 -0.064120412 0.46300003
0.080251329 -0.064120412 0.46300003
0.081057876 -0.064120412 0.46300003
0.081864424 -0.064120412 0.46300003
0.082670972 -0.064120412 0.46300003
0.083657816 -0.064258903 0.46400002
0.08464814 -0.064397387 0.46500003
0.085458167 -0.064397387 0.46500003
0.086268201 -0.064397387 0.46500003
0.087078229 -0.064397387 0.46500003
0.088077269 -0.064535879 0.46600002
0.08907979 -0.06467437 0.46700001
0.090085797 -0.064812854 0.46800002
0.090901047 -0.064812854 0.46800002
0.091912277 -0.064951345 0.46900001
0.092926994 -0.065089837 0.47000003
0.094144657 -0.065366812 0.47200003
0.047678541 -0.06290362 0.46000001
0.048479863 -0.06290362 0.46000001
0.049281184 -0.06290362 0.46000001
0.050082505 -0.06290362 0.46000001
0.050994441 -0.063040368 0.46100003
0.051797502 -0.063040368 0.46100003
0.052600563 -0.063040368 0.46100003
0.053403627 -0.063040368 0.46100003
0.054206688 -0.063040368 0.46100003
0.055009749 -0.063040368 0.46100003
0.055933882 -0.063177116 0.46200001
0.056738686 -0.063177116 0.46200001
0.057418935 -0.063040368 0.46100003
0.058474589 -0.063313864 0.46300003
0.059281133 -0.063313864 0.46300003
0.059957903 -0.063177116 0.46200001
0.060762707 -0.063177116 0.46200001
0.061700772 -0.063313864 0.46300003
0.062372316 -0.063177116 0.46200001
0.063177116 -0.063177116 0.46200001
0.06398192 -0.063177116 0.46200001
0.064646497 -0.063040368 0.46100003
0.065449558 -0.063040368 0.46100003
0.066252619 -0.063040368 0.46100003
0.06705568 -0.063040368 0.46100003
0.067858741 -0.063040368 0.46100003
0.068661809 -0.063040368 0.46100003
0.06946487 -0.063040368 0.46100003
0.070267931 -0.063040368 0.46100003
0.071379326 -0.063313864 0.46300003
0.072185874 -0.063313864 0.46300003
0.072992414 -0.063313864 0.46300003
0.073798962 -0.063313864 0.46300003
0.07460551 -0.063313864 0.46300003
0.075412057 -0.063313864 0.46300003
0.076218605 -0.063313864 0.46300003
0.077025145 -0.063313864 0.46300003
0.077663593 -0.063177116 0.46200001
0.078468397 -0.063177116 0.46200001
0.079273202 -0.063177116 0.46200001
0.080078006 -0.063177116 0.46200001
0.08088281 -0.063177116 0.46200001
0.081687614 -0.063177116 0.46200001
0.082670972 -0.063313864 0.46300003
0.083477519 -0.063313864 0.46300003
0.0844661 -0.063450612 0.46400002
0.085458167 -0.06358736 0.46500003
0.086268201 -0.06358736 0.46500003
0.087078229 -0.06358736 0.46500003
0.088077269 -0.063724108 0.46600002
0.08907979 -0.063860856 0.46700001
0.090085797 -0.063997597 0.46800002
0.090901047 -0.063997597 0.46800002
0.092108257 -0.064271092 0.47000003
0.093717866 -0.064818084 0.47400004
0.094543569 -0.064818084 0.47400004
0.095570482 -0.064954832 0.47500002
0.04667341 -0.061832294 0.45800003
0.047574893 -0.061967298 0.45900002
0.04837447 -0.061967298 0.45900002
0.049281184 -0.062102303 0.46000001
0.050082505 -0.062102303 0.46000001
0.050883822 -0.062102303 0.46000001
0.051685143 -0.062102303 0.46000001
0.052486464 -0.062102303 0.46000001
0.053287782 -0.062102303 0.46000001
0.054089103 -0.062102303 0.46000001
0.054890424 -0.062102303 0.46000001
0.055691745 -0.062102303 0.46000001
0.056493063 -0.062102303 0.46000001
0.057294384 -0.062102303 0.46000001
0.058095705 -0.062102303 0.46000001
0.058897022 -0.062102303 0.46000001
0.059698343 -0.062102303 0.46000001
0.060499664 -0.062102303 0.46000001
0.061434247 -0.062237307 0.46100003
0.062237307 -0.062237307 0.46100003
0.063040368 -0.062237307 0.46100003
0.063843437 -0.062237307 0.46100003
0.064646497 -0.062237307 0.46100003
0.065307587 -0.062102303 0.46000001
0.066108905 -0.062102303 0.46000001
0.066910222 -0.062102303 0.46000001
0.067711547 -0.062102303 0.46000001
0.068512864 -0.062102303 0.46000001
0.069314182 -0.062102303 0.46000001
0.070115507 -0.062102303 0.46000001
0.070916824 -0.062102303 0.46000001
0.071718141 -0.062102303 0.46000001
0.072519466 -0.062102303 0.46000001
0.073320784 -0.062102303 0.46000001
0.074122101 -0.062102303 0.46000001
0.074923426 -0.062102303 0.46000001
0.075724743 -0.062102303 0.46000001
0.076692425 -0.062237307 0.46100003
0.077495486 -0.062237307 0.46100003
0.078298546 -0.062237307 0.46100003
0.079101615 -0.062237307 0.46100003
0.079904675 -0.062237307 0.46100003
0.080707736 -0.062237307 0.46100003
0.081510797 -0.062237307 0.46100003
0.082492419 -0.062372316 0.46200001
0.083477519 -0.062507316 0.46300003
0.0844661 -0.062642321 0.46400002
0.085274391 -0.062642321 0.46400002
0.086268201 -0.062777326 0.46500003
0.087078229 -0.062777326 0.46500003
0.088077269 -0.062912337 0.46600002
0.08907979 -0.063047342 0.46700001
0.090085797 -0.063182347 0.46800002
0.090901047 -0.063182347 0.46800002
0.092108257 -0.063452356 0.47000003
0.093717866 -0.063992374 0.47400004
0.094543569 -0.063992374 0.47400004
0.095771685 -0.064262383 0.47600001
0.096600875 -0.064262383 0.47600001
0.097430065 -0.064262383 0.47600001
0.045875572 -0.06103446 0.45800003
0.04667341 -0.06103446 0.45800003
0.047574893 -0.061167721 0.45900002
0.04837447 -0.061167721 0.45900002
0.049174052 -0.061167721 0.45900002
0.049864754 -0.06103446 0.45800003
0.050773207 -0.061167721 0.45900002
0.051572785 -0.061167721 0.45900002
0.052372362 -0.061167721 0.45900002
0.05317194 -0.061167721 0.45900002
0.053853933 -0.06103446 0.45800003
0.054771096 -0.061167721 0.45900002
0.055449605 -0.06103446 0.45800003
0.056370251 -0.061167721 0.45900002
0.057169832 -0.061167721 0.45900002
0.057843115 -0.06103446 0.45800003
0.058640949 -0.06103446 0.45800003
0.059438787 -0.06103446 0.45800003
0.060236622 -0.06103446 0.45800003
0.06103446 -0.06103446 0.45800003
0.062102303 -0.061300986 0.46000001
0.06276688 -0.061167721 0.45900002
0.063566454 -0.061167721 0.45900002
0.064506263 -0.061300986 0.46000001
0.065165609 -0.061167721 0.45900002
0.065965191 -0.061167721 0.45900002
0.066764764 -0.061167721 0.45900002
0.067564346 -0.061167721 0.45900002
0.06836392 -0.061167721 0.45900002
0.069163501 -0.061167721 0.45900002
0.069963083 -0.061167721 0.45900002
0.070762657 -0.061167721 0.45900002
0.071562238 -0.061167721 0.45900002
0.072361812 -0.061167721 0.45900002
0.073161393 -0.061167721 0.45900002
0.073799834 -0.06103446 0.45800003
0.074597672 -0.06103446 0.45800003
0.07539551 -0.06103446 0.45800003
0.076359704 -0.061167721 0.45900002
0.077159278 -0.061167721 0.45900002
0.078128703 -0.061300986 0.46000001
0.078930028 -0.061300986 0.46000001
0.079731345 -0.061300986 0.46000001
0.080532663 -0.061300986 0.46000001
0.081510797 -0.061434247 0.46100003
0.082313858 -0.061434247 0.46100003
0.083297223 -0.061567511 0.46200001
0.0844661 -0.061834037 0.46400002
0.085274391 -0.061834037 0.46400002
0.086268201 -0.061967298 0.46500003
0.087078229 -0.061967298 0.46500003
0.088077269 -0.062100563 0.46600002
0.08907979 -0.062233824 0.46700001
0.090085797 -0.062367089 0.46800002
0.091289513 -0.062633611 0.47000003
0.092892155 -0.063166663 0.47400004
0.093717866 -0.063166663 0.47400004
0.094743028 -0.063299932 0.47500002
0.095771685 -0.063433193 0.47600001
0.096600875 -0.063433193 0.47600001
0.097430065 -0.063433193 0.47600001
0.045875572 -0.060236622 0.45800003
0.04667341 -0.060236622 0.45800003
0.047471244 -0.060236622 0.45800003
0.048269082 -0.060236622 0.45800003
0.049066916 -0.060236622 0.45800003
0.049864754 -0.060236622 0.45800003
0.050662588 -0.060236622 0.45800003
0.051460426 -0.060236622 0.45800003
0.052258261 -0.060236622 0.45800003
0.053056099 -0.060236622 0.45800003
0.053853933 -0.060236622 0.45800003
0.054651771 -0.060236622 0.45800003
0.055328537 -0.0601051 0.45700002
0.056124631 -0.0601051 0.45700002
0.056920726 -0.0601051 0.45700002
0.05771682 -0.0601051 0.45700002
0.058512911 -0.0601051 0.45700002
0.059309006 -0.0601051 0.45700002
0.0601051 -0.0601051 0.45700002
0.060901195 -0.0601051 0.45700002
0.061832294 -0.060236622 0.45800003
0.062630132 -0.060236622 0.45800003
0.063427962 -0.060236622 0.45800003
0.0642258 -0.060236622 0.45800003
0.065023638 -0.060236622 0.45800003
0.065821476 -0.060236622 0.45800003
0.066619307 -0.060236622 0.45800003
0.067417145 -0.060236622 0.45800003
0.068214983 -0.060236622 0.45800003
0.069012821 -0.060236622 0.45800003
0.069810651 -0.060236622 0.45800003
0.070608489 -0.060236622 0.45800003
0.071406327 -0.060236622 0.45800003
0.072204165 -0.060236622 0.45800003
0.073001996 -0.060236622 0.45800003
0.0736387 -0.0601051 0.45700002
0.074434794 -0.0601051 0.45700002
0.075230889 -0.0601051 0.45700002
0.07619334 -0.060236622 0.45800003
0.076991178 -0.060236622 0.45800003
0.077789016 -0.060236622 0.45800003
0.078758441 -0.060368143 0.45900002
0.079558015 -0.060368143 0.45900002
0.080532663 -0.060499664 0.46000001
0.081333987 -0.060499664 0.46000001
0.082313858 -0.060631186 0.46100003
0.083297223 -0.060762707 0.46200001
0.0844661 -0.061025746 0.46400002
0.085274391 -0.061025746 0.46400002
0.086268201 -0.061157268 0.46500003
0.087078229 -0.061157268 0.46500003
0.088077269 -0.061288789 0.46600002
0.08927054 -0.061551832 0.46800002
0.090085797 -0.061551832 0.46800002
0.092066444 -0.062340956 0.47400004
0.092892155 -0.062340956 0.47400004
0.093915582 -0.062472478 0.47500002
0.094743028 -0.062472478 0.47500002
0.095771685 -0.062604003 0.47600001
0.096600875 -0.062604003 0.47600001
0.097634748 -0.06273552 0.47700003
0.098465689 -0.06273552 0.47700003
0.045675244 -0.059179228 0.45600003
0.046571501 -0.059309006 0.45700002
0.047367595 -0.059309006 0.45700002
0.04816369 -0.059309006 0.45700002
0.048959784 -0.059309006 0.45700002
0.049755879 -0.059309006 0.45700002
0.050551973 -0.059309006 0.45700002
0.051235706 -0.059179228 0.45600003
0.05203006 -0.059179228 0.45600003
0.052824412 -0.059179228 0.45600003
0.053618763 -0.059179228 0.45600003
0.054413114 -0.059179228 0.45600003
0.055207469 -0.059179228 0.45600003
0.05600182 -0.059179228 0.45600003
0.056920726 -0.059309006 0.45700002
0.05771682 -0.059309006 0.45700002
0.058384877 -0.059179228 0.45600003
0.059179228 -0.059179228 0.45600003
0.059973579 -0.059179228 0.45600003
0.06076793 -0.059179228 0.45600003
0.061697289 -0.059309006 0.45700002
0.062493384 -0.059309006 0.45700002
0.063289478 -0.059309006 0.45700002
0.064085573 -0.059309006 0.45700002
0.064881667 -0.059309006 0.45700002
0.065677762 -0.059309006 0.45700002
0.066473857 -0.059309006 0.45700002
0.067269944 -0.059309006 0.45700002
0.068066038 -0.059309006 0.45700002
0.068862133 -0.059309006 0.45700002
0.069658227 -0.059309006 0.45700002
0.070454322 -0.059309006 0.45700002
0.071250416 -0.059309006 0.45700002
0.072046511 -0.059309006 0.45700002
0.072842605 -0.059309006 0.45700002
0.0736387 -0.059309006 0.45700002
0.074434794 -0.059309006 0.45700002
0.075230889 -0.059309006 0.45700002
0.076026984 -0.059309006 0.45700002
0.076823078 -0.059309006 0.45700002
0.077789016 -0.059438787 0.45800003
0.078586854 -0.059438787 0.45800003
0.079558015 -0.059568565 0.45900002
0.080357596 -0.059568565 0.45900002
0.081333987 -0.059698343 0.46000001
0.082135305 -0.059698343 0.46000001
0.083116919 -0.059828121 0.46100003
0.0844661 -0.060217459 0.46400002
0.085458167 -0.06034724 0.46500003
0.086268201 -0.06034724 0.46500003
0.087265499 -0.060477018 0.46600002
0.088266276 -0.060606796 0.46700001
0.08927054 -0.060736574 0.46800002
0.090470776 -0.060996134 0.47000003
0.092066444 -0.061515249 0.47400004
0.093088128 -0.061645027 0.47500002
0.093915582 -0.061645027 0.47500002
0.094743028 -0.061645027 0.47500002
0.095771685 -0.061774809 0.47600001
0.096803814 -0.061904587 0.47700003
0.097839437 -0.062034365 0.47800002
0.098672114 -0.062034365 0.47800002
0.042311441 -0.0581288 0.45400003
0.043102309 -0.0581288 0.45400003
0.043893177 -0.0581288 0.45400003
0.044684045 -0.0581288 0.45400003
0.045775406 -0.058512911 0.45700002
0.046571501 -0.058512911 0.45700002
0.047367595 -0.058512911 0.45700002
0.048058297 -0.058384877 0.45600003
0.048745517 -0.058256838 0.45500001
0.049647003 -0.058384877 0.45600003
0.050441355 -0.058384877 0.45600003
0.051123347 -0.058256838 0.45500001
0.051915959 -0.058256838 0.45500001
0.05270857 -0.058256838 0.45500001
0.053501178 -0.058256838 0.45500001
0.054293789 -0.058256838 0.45500001
0.055086397 -0.058256838 0.45500001
0.055879008 -0.058256838 0.45500001
0.056671619 -0.058256838 0.45500001
0.057464227 -0.058256838 0.45500001
0.058256838 -0.058256838 0.45500001
0.05904945 -0.058256838 0.45500001
0.059842058 -0.058256838 0.45500001
0.060634669 -0.058256838 0.45500001
0.06142728 -0.058256838 0.45500001
0.06208314 -0.0581288 0.45400003
0.063012496 -0.058256838 0.45500001
0.063805111 -0.058256838 0.45500001
0.064597718 -0.058256838 0.45500001
0.065534048 -0.058384877 0.45600003
0.066182941 -0.058256838 0.45500001
0.066975549 -0.058256838 0.45500001
0.067917101 -0.058384877 0.45600003
0.068711452 -0.058384877 0.45600003
0.069353379 -0.058256838 0.45500001
0.070145987 -0.058256838 0.45500001
0.070938602 -0.058256838 0.45500001
0.07173121 -0.058256838 0.45500001
0.072523817 -0.058256838 0.45500001
0.073316433 -0.058256838 0.45500001
0.07410904 -0.058256838 0.45500001
0.074901648 -0.058256838 0.45500001
0.076026984 -0.058512911 0.45700002
0.076823078 -0.058512911 0.45700002
0.077619173 -0.058512911 0.45700002
0.078586854 -0.058640949 0.45800003
0.079384685 -0.058640949 0.45800003
0.080357596 -0.058768988 0.45900002
0.081333987 -0.058897022 0.46000001
0.082135305 -0.058897022 0.46000001
0.083116919 -0.05902506 0.46100003
0.0844661 -0.059409171 0.46400002
0.085458167 -0.05953721 0.46500003
0.086268201 -0.05953721 0.46500003
0.087265499 -0.059665244 0.46600002
0.088455282 -0.059921321 0.46800002
0.089652039 -0.060177393 0.47000003
0.090855755 -0.060433466 0.47200003
0.092260681 -0.060817577 0.47500002
0.093088128 -0.060817577 0.47500002
0.094113298 -0.060945615 0.47600001
0.094942488 -0.060945615 0.47600001
0.095771685 -0.060945615 0.47600001
0.096803814 -0.061073653 0.47700003
0.097839437 -0.061201692 0.47800002
0.039762896 -0.057085343 0.45200002
0.04055028 -0.057085343 0.45200002
0.041337661 -0.057085343 0.45200002
0.042125046 -0.057085343 0.45200002
0.042912431 -0.057085343 0.45200002
0.043796495 -0.057211637 0.45300001
0.044487197 -0.057085343 0.45200002
0.045374747 -0.057211637 0.45300001
0.046163876 -0.057211637 0.45300001
0.047263946 -0.057590522 0.45600003
0.047952909 -0.057464227 0.45500001
0.048638385 -0.057337932 0.45400003
0.049538128 -0.057464227 0.45500001
0.050330739 -0.057464227 0.45500001
0.051010989 -0.057337932 0.45400003
0.051801857 -0.057337932 0.45400003
0.052592725 -0.057337932 0.45400003
0.053383593 -0.057337932 0.45400003
0.05417446 -0.057337932 0.45400003
0.054965328 -0.057337932 0.45400003
0.055879008 -0.057464227 0.45500001
0.056671619 -0.057464227 0.45500001
0.057464227 -0.057464227 0.45500001
0.058256838 -0.057464227 0.45500001
0.05904945 -0.057464227 0.45500001
0.059842058 -0.057464227 0.45500001
0.060634669 -0.057464227 0.45500001
0.061157268 -0.057211637 0.45300001
0.061946396 -0.057211637 0.45300001
0.062874012 -0.057337932 0.45400003
0.063805111 -0.057464227 0.45500001
0.064455748 -0.057337932 0.45400003
0.065390326 -0.057464227 0.45500001
0.066182941 -0.057464227 0.45500001
0.066975549 -0.057464227 0.45500001
0.067768157 -0.057464227 0.45500001
0.068560772 -0.057464227 0.45500001
0.069353379 -0.057464227 0.45500001
0.06999182 -0.057337932 0.45400003
0.070782691 -0.057337932 0.45400003
0.071573555 -0.057337932 0.45400003
0.072364427 -0.057337932 0.45400003
0.073316433 -0.057464227 0.45500001
0.07410904 -0.057464227 0.45500001
0.074901648 -0.057464227 0.45500001
0.07586062 -0.057590522 0.45600003
0.076823078 -0.05771682 0.45700002
0.077619173 -0.05771682 0.45700002
0.078586854 -0.057843115 0.45800003
0.079384685 -0.057843115 0.45800003
0.080357596 -0.05796941 0.45900002
0.081333987 -0.058095705 0.46000001
0.082135305 -0.058095705 0.46000001
0.083477519 -0.058474589 0.46300003
0.08464814 -0.058727179 0.46500003
0.085458167 -0.058727179 0.46500003
0.086268201 -0.058727179 0.46500003
0.087640025 -0.059106063 0.46800002
0.088833295 -0.059358653 0.47000003
0.089842781 -0.059484947 0.47100002
0.091048248 -0.059737537 0.47300002
0.092260681 -0.05999013 0.47500002
0.093088128 -0.05999013 0.47500002
0.094113298 -0.060116425 0.47600001
0.095141947 -0.06024272 0.47700003
0.095972881 -0.06024272 0.47700003
0.038272612 -0.056422513 0.45300001
0.038975511 -0.056297958 0.45200002
0.039762896 -0.056297958 0.45200002
0.04055028 -0.056297958 0.45200002
0.041337661 -0.056297958 0.45200002
0.042125046 -0.056297958 0.45200002
0.042912431 -0.056297958 0.45200002
0.043699816 -0.056297958 0.45200002
0.044388775 -0.056173407 0.45100003
0.045174416 -0.056173407 0.45100003
0.045960061 -0.056173407 0.45100003
0.046745703 -0.056173407 0.45100003
0.047636736 -0.056297958 0.45200002
0.048531253 -0.056422513 0.45300001
0.049429253 -0.056547064 0.45400003
0.050220121 -0.056547064 0.45400003
0.051010989 -0.056547064 0.45400003
0.051801857 -0.056547064 0.45400003
0.052592725 -0.056547064 0.45400003
0.053266007 -0.056422513 0.45300001
0.054055136 -0.056422513 0.45300001
0.054965328 -0.056547064 0.45400003
0.055756196 -0.056547064 0.45400003
0.056547064 -0.056547064 0.45400003
0.057337932 -0.056547064 0.45400003
0.0581288 -0.056547064 0.45400003
0.058919668 -0.056547064 0.45400003
0.059710536 -0.056547064 0.45400003
0.060368143 -0.056422513 0.45300001
0.061022263 -0.056297958 0.45200002
0.061809648 -0.056297958 0.45200002
0.062597029 -0.056297958 0.45200002
0.063384414 -0.056297958 0.45200002
0.064313769 -0.056422513 0.45300001
0.065102898 -0.056422513 0.45300001
0.066037484 -0.056547064 0.45400003
0.066681154 -0.056422513 0.45300001
0.067619219 -0.056547064 0.45400003
0.068410084 -0.056547064 0.45400003
0.069048531 -0.056422513 0.45300001
0.069837652 -0.056422513 0.45300001
0.07062678 -0.056422513 0.45300001
0.071573555 -0.056547064 0.45400003
0.072364427 -0.056547064 0.45400003
0.073155291 -0.056547064 0.45400003
0.07410904 -0.056671619 0.45500001
0.074901648 -0.056671619 0.45500001
0.075694263 -0.056671619 0.45500001
0.076654971 -0.056796171 0.45600003
0.077619173 -0.056920726 0.45700002
0.078415267 -0.056920726 0.45700002
0.079384685 -0.057045277 0.45800003
0.080357596 -0.057169832 0.45900002
0.081333987 -0.057294384 0.46000001
0.082313858 -0.057418935 0.46100003
0.083477519 -0.057668041 0.46300003
0.08483018 -0.058041703 0.46600002
0.08564195 -0.058041703 0.46600002
0.086453721 -0.058041703 0.46600002
0.087827288 -0.058415361 0.46900001
0.089022301 -0.058664467 0.47100002
0.090033531 -0.058789019 0.47200003
0.090855755 -0.058789019 0.47200003
0.09245491 -0.059287231 0.47600001
0.093284108 -0.059287231 0.47600001
0.094311014 -0.059411786 0.47700003
0.095341407 -0.059536338 0.47800002
0.096174084 -0.059536338 0.47800002
0.038272612 -0.055633385 0.45300001
0.038975511 -0.055510577 0.45200002
0.039762896 -0.055510577 0.45200002
0.04055028 -0.055510577 0.45200002
0.041246209 -0.055387765 0.45100003
0.042125046 -0.055510577 0.45200002
0.042817492 -0.055387765 0.45100003
0.043603133 -0.055387765 0.45100003
0.044388775 -0.055387765 0.45100003
0.045174416 -0.055387765 0.45100003
0.045960061 -0.055387765 0.45100003
0.046745703 -0.055387765 0.45100003
0.047531344 -0.055387765 0.45100003
0.048316985 -0.055387765 0.45100003
0.049102627 -0.055387765 0.45100003
0.049998887 -0.055510577 0.45200002
0.050786272 -0.055510577 0.45200002
0.051573656 -0.055510577 0.45200002
0.052361038 -0.055510577 0.45200002
0.053148422 -0.055510577 0.45200002
0.053935807 -0.055510577 0.45200002
0.054723192 -0.055510577 0.45200002
0.055633385 -0.055633385 0.45300001
0.056422513 -0.055633385 0.45300001
0.057085343 -0.055510577 0.45200002
0.057872728 -0.055510577 0.45200002
0.058660112 -0.055510577 0.45200002
0.059447497 -0.055510577 0.45200002
0.060234878 -0.055510577 0.45200002
0.061022263 -0.055510577 0.45200002
0.061809648 -0.055510577 0.45200002
0.062458541 -0.055387765 0.45100003
0.063384414 -0.055510577 0.45200002
0.064171799 -0.055510577 0.45200002
0.064959183 -0.055510577 0.45200002
0.065746568 -0.055510577 0.45200002
0.066533953 -0.055510577 0.45200002
0.067321338 -0.055510577 0.45200002
0.068108723 -0.055510577 0.45200002
0.068896107 -0.055510577 0.45200002
0.069683485 -0.055510577 0.45200002
0.07047087 -0.055510577 0.45200002
0.071415909 -0.055633385 0.45300001
0.072364427 -0.055756196 0.45400003
0.073155291 -0.055756196 0.45400003
0.073946163 -0.055756196 0.45400003
0.074901648 -0.055879008 0.45500001
0.075694263 -0.055879008 0.45500001
0.076654971 -0.05600182 0.45600003
0.077619173 -0.056124631 0.45700002
0.078415267 -0.056124631 0.45700002
0.079384685 -0.056247443 0.45800003
0.080357596 -0.056370251 0.45900002
0.081333987 -0.056493063 0.46000001
0.082670972 -0.056861497 0.46300003
0.083838113 -0.057107117 0.46500003
0.08483018 -0.057229929 0.46600002
0.08564195 -0.057229929 0.46600002
0.086639248 -0.05735274 0.46700001
0.088014558 -0.057721175 0.47000003
0.089211307 -0.057966795 0.47200003
0.090415031 -0.058212418 0.47400004
0.091240741 -0.058212418 0.47400004
0.092649147 -0.058580849 0.47700003
0.093284108 -0.058458041 0.47600001
0.09450873 -0.058703661 0.47800002
0.095341407 -0.058703661 0.47800002
0.096174084 -0.058703661 0.47800002
0.038272612 -0.05484426 0.45300001
0.038975511 -0.054723192 0.45200002
0.039762896 -0.054723192 0.45200002
0.04055028 -0.054723192 0.45200002
0.041246209 -0.054602124 0.45100003
0.042031851 -0.054602124 0.45100003
0.042817492 -0.054602124 0.45100003
0.043506451 -0.054481052 0.45000002
0.044290353 -0.054481052 0.45000002
0.045074254 -0.054481052 0.45000002
0.045858152 -0.054481052 0.45000002
0.046642054 -0.054481052 0.45000002
0.047320563 -0.054359984 0.44900003
0.048102722 -0.054359984 0.44900003
0.04888488 -0.054359984 0.44900003
0.049777653 -0.054481052 0.45000002
0.050673913 -0.054602124 0.45100003
0.051459555 -0.054602124 0.45100003
0.052245196 -0.054602124 0.45100003
0.053030837 -0.054602124 0.45100003
0.053816479 -0.054602124 0.45100003
0.054602124 -0.054602124 0.45100003
0.055510577 -0.054723192 0.45200002
0.056297958 -0.054723192 0.45200002
0.056959048 -0.054602124 0.45100003
0.057744689 -0.054602124 0.45100003
0.058660112 -0.054723192 0.45200002
0.059447497 -0.054723192 0.45200002
0.060234878 -0.054723192 0.45200002
0.060887258 -0.054602124 0.45100003
0.0616729 -0.054602124 0.45100003
0.062458541 -0.054602124 0.45100003
0.063384414 -0.054723192 0.45200002
0.064171799 -0.054723192 0.45200002
0.064815469 -0.054602124 0.45100003
0.06560111 -0.054602124 0.45100003
0.066386752 -0.054602124 0.45100003
0.067172393 -0.054602124 0.45100003
0.067958035 -0.054602124 0.45100003
0.068743676 -0.054602124 0.45100003
0.069529325 -0.054602124 0.45100003
0.070314966 -0.054602124 0.45100003
0.071258254 -0.054723192 0.45200002
0.072045639 -0.054723192 0.45200002
0.073155291 -0.054965328 0.45400003
0.073946163 -0.054965328 0.45400003
0.074901648 -0.055086397 0.45500001
0.075694263 -0.055086397 0.45500001
0.076486871 -0.055086397 0.45500001
0.077619173 -0.055328537 0.45700002
0.078415267 -0.055328537 0.45700002
0.079384685 -0.055449605 0.45800003
0.080532663 -0.055691745 0.46000001
0.082041234 -0.056176018 0.46400002
0.083028078 -0.05629709 0.46500003
0.083838113 -0.05629709 0.46500003
