# .PCD v0.7 - Point Cloud Data file format
VERSION 0.7
FIELDS x y z
SIZE 4 4 4
TYPE F F F
COUNT 1 1 1
WIDTH 1332
HEIGHT 1
VIEWPOINT 0 0 0 1 0 0 0
POINTS 1332
DATA ascii
0.074222267 -0.03463706 0.43700001
0.074983522 -0.03463706 0.43700001
0.075918108 -0.034716319 0.43800002
0.076506034 -0.03463706 0.43700001
0.048231628 -0.034340918 0.44300002
0.049003333 -0.034340918 0.44300002
0.049662679 -0.034263398 0.44200003
0.050432645 -0.034263398 0.44200003
0.050970923 -0.034108363 0.44000003
0.051737402 -0.034108363 0.44000003
0.052384555 -0.034030844 0.43900001
0.053028226 -0.033953324 0.43800002
0.05366841 -0.033875804 0.43700001
0.054429665 -0.033875804 0.43700001
0.055064622 -0.033798285 0.43600002
0.055824134 -0.033798285 0.43600002
0.056453869 -0.033720765 0.43500003
0.057211637 -0.033720765 0.43500003
0.057836145 -0.033643249 0.43400002
0.058592174 -0.033643249 0.43400002
0.059348203 -0.033643249 0.43400002
0.059965741 -0.03356573 0.43300003
0.060720026 -0.03356573 0.43300003
0.061332341 -0.03348821 0.43200001
0.062084883 -0.03348821 0.43200001
0.062837429 -0.03348821 0.43200001
0.063589975 -0.03348821 0.43200001
0.064342514 -0.03348821 0.43200001
0.06524574 -0.03356573 0.43300003
0.066000029 -0.03356573 0.43300003
0.066754319 -0.03356573 0.43300003
0.067508601 -0.03356573 0.43300003
0.068420537 -0.033643249 0.43400002
0.06917657 -0.033643249 0.43400002
0.069932595 -0.033643249 0.43400002
0.070851497 -0.033720765 0.43500003
0.071773887 -0.033798285 0.43600002
0.072533399 -0.033798285 0.43600002
0.073461019 -0.033875804 0.43700001
0.074222267 -0.033875804 0.43700001
0.074983522 -0.033875804 0.43700001
0.075744778 -0.033875804 0.43700001
0.0766811 -0.033953324 0.43800002
0.077444099 -0.033953324 0.43800002
0.048340503 -0.033644989 0.44400004
0.049003333 -0.033569213 0.44300002
0.049662679 -0.033493437 0.44200003
0.050432645 -0.033493437 0.44200003
0.051086765 -0.033417661 0.44100001
0.051854987 -0.033417661 0.44100001
0.052503884 -0.033341881 0.44000003
0.053149294 -0.033266105 0.43900001
0.053791221 -0.033190329 0.43800002
0.054429665 -0.033114552 0.43700001
0.055190917 -0.033114552 0.43700001
0.055824134 -0.033038773 0.43600002
0.056583647 -0.033038773 0.43600002
0.057211637 -0.032962997 0.43500003
0.05796941 -0.032962997 0.43500003
0.058592174 -0.03288722 0.43400002
0.059348203 -0.03288722 0.43400002
0.060104229 -0.03288722 0.43400002
0.060860258 -0.03288722 0.43400002
0.061474312 -0.032811444 0.43300003
0.062228598 -0.032811444 0.43300003
0.062982887 -0.032811444 0.43300003
0.063737169 -0.032811444 0.43300003
0.064491458 -0.032811444 0.43300003
0.065396428 -0.03288722 0.43400002
0.066152453 -0.03288722 0.43400002
0.066908479 -0.03288722 0.43400002
0.067664512 -0.03288722 0.43400002
0.068420537 -0.03288722 0.43400002
0.06917657 -0.03288722 0.43400002
0.070093729 -0.032962997 0.43500003
0.071014374 -0.033038773 0.43600002
0.071773887 -0.033038773 0.43600002
0.072699763 -0.033114552 0.43700001
0.073461019 -0.033114552 0.43700001
0.074392118 -0.033190329 0.43800002
0.074983522 -0.033114552 0.43700001
0.075744778 -0.033114552 0.43700001
0.0766811 -0.033190329 0.43800002
0.077444099 -0.033190329 0.43800002
0.078921318 -0.033493437 0.44200003
0.048340503 -0.032871541 0.44400004
0.049113952 -0.032871541 0.44400004
0.049775042 -0.032797508 0.44300002
0.050432645 -0.032723472 0.44200003
0.051086765 -0.032649439 0.44100001
0.051854987 -0.032649439 0.44100001
0.052503884 -0.032575402 0.44000003
0.053149294 -0.032501366 0.43900001
0.053914033 -0.032501366 0.43900001
0.054554217 -0.032427333 0.43800002
0.055190917 -0.032353297 0.43700001
0.055952173 -0.032353297 0.43700001
0.056583647 -0.03227926 0.43600002
0.057343159 -0.03227926 0.43600002
0.05796941 -0.032205228 0.43500003
0.058727179 -0.032205228 0.43500003
0.059484947 -0.032205228 0.43500003
0.060104229 -0.032131191 0.43400002
0.060860258 -0.032131191 0.43400002
0.061616287 -0.032131191 0.43400002
0.062372316 -0.032131191 0.43400002
0.063128345 -0.032131191 0.43400002
0.06388437 -0.032131191 0.43400002
0.064640395 -0.032131191 0.43400002
0.065396428 -0.032131191 0.43400002
0.066152453 -0.032131191 0.43400002
0.066908479 -0.032131191 0.43400002
0.067664512 -0.032131191 0.43400002
0.068578191 -0.032205228 0.43500003
0.06933596 -0.032205228 0.43500003
0.070093729 -0.032205228 0.43500003
0.071014374 -0.03227926 0.43600002
0.071938507 -0.032353297 0.43700001
0.072699763 -0.032353297 0.43700001
0.073629119 -0.032427333 0.43800002
0.074561961 -0.032501366 0.43900001
0.075498283 -0.032575402 0.44000003
0.076264761 -0.032575402 0.44000003
0.077206314 -0.032649439 0.44100001
0.078151353 -0.032723472 0.44200003
0.078921318 -0.032723472 0.44200003
0.048340503 -0.032098092 0.44400004
0.049113952 -0.032098092 0.44400004
0.049775042 -0.032025799 0.44300002
0.050432645 -0.031953506 0.44200003
0.05120261 -0.031953506 0.44200003
0.051854987 -0.031881213 0.44100001
0.052503884 -0.03180892 0.44000003
0.053270362 -0.03180892 0.44000003
0.053914033 -0.031736627 0.43900001
0.054554217 -0.031664334 0.43800002
0.055190917 -0.031592041 0.43700001
0.055952173 -0.031592041 0.43700001
0.056713428 -0.031592041 0.43700001
0.057343159 -0.031519748 0.43600002
0.058102671 -0.031519748 0.43600002
0.058727179 -0.031447455 0.43500003
0.059484947 -0.031447455 0.43500003
0.06024272 -0.031447455 0.43500003
0.061000489 -0.031447455 0.43500003
0.061758257 -0.031447455 0.43500003
0.062516026 -0.031447455 0.43500003
0.063273802 -0.031447455 0.43500003
0.064031571 -0.031447455 0.43500003
0.06478934 -0.031447455 0.43500003
0.065547109 -0.031447455 0.43500003
0.066304877 -0.031447455 0.43500003
0.067062646 -0.031447455 0.43500003
0.067820422 -0.031447455 0.43500003
0.068578191 -0.031447455 0.43500003
0.06949535 -0.031519748 0.43600002
0.070254862 -0.031519748 0.43600002
0.071177252 -0.031592041 0.43700001
0.071938507 -0.031592041 0.43700001
0.073032483 -0.031736627 0.43900001
0.073797219 -0.031736627 0.43900001
0.074561961 -0.031736627 0.43900001
0.075498283 -0.03180892 0.44000003
0.076438092 -0.031881213 0.44100001
0.077206314 -0.031881213 0.44100001
0.078151353 -0.031953506 0.44200003
0.078921318 -0.031953506 0.44200003
0.048449378 -0.031395197 0.44500002
0.049224567 -0.031395197 0.44500002
0.0498874 -0.031324647 0.44400004
0.050546747 -0.031254094 0.44300002
0.05120261 -0.031183545 0.44200003
0.051972572 -0.031183545 0.44200003
0.052623209 -0.031112993 0.44100001
0.053270362 -0.031042442 0.44000003
0.054036845 -0.031042442 0.44000003
0.054678772 -0.03097189 0.43900001
0.055317212 -0.030901341 0.43800002
0.055952173 -0.030830789 0.43700001
0.056713428 -0.030830789 0.43700001
0.05747468 -0.030830789 0.43700001
0.058102671 -0.030760238 0.43600002
0.058862183 -0.030760238 0.43600002
0.059621695 -0.030760238 0.43600002
0.060381208 -0.030760238 0.43600002
0.06114072 -0.030760238 0.43600002
0.061758257 -0.030689687 0.43500003
0.062516026 -0.030689687 0.43500003
0.063273802 -0.030689687 0.43500003
0.064031571 -0.030689687 0.43500003
0.06478934 -0.030689687 0.43500003
0.065547109 -0.030689687 0.43500003
0.066304877 -0.030689687 0.43500003
0.067062646 -0.030689687 0.43500003
0.067976326 -0.030760238 0.43600002
0.068735838 -0.030760238 0.43600002
0.06949535 -0.030760238 0.43600002
0.070415996 -0.030830789 0.43700001
0.071340129 -0.030901341 0.43800002
0.072267748 -0.03097189 0.43900001
0.073032483 -0.03097189 0.43900001
0.073797219 -0.03097189 0.43900001
0.074731804 -0.031042442 0.44000003
0.07566987 -0.031112993 0.44100001
0.076438092 -0.031112993 0.44100001
0.077381387 -0.031183545 0.44200003
0.078151353 -0.031183545 0.44200003
0.078921318 -0.031183545 0.44200003
0.048449378 -0.030620007 0.44500002
0.049224567 -0.030620007 0.44500002
0.0498874 -0.030551197 0.44400004
0.050660849 -0.030551197 0.44400004
0.051318452 -0.030482389 0.44300002
0.051972572 -0.030413579 0.44200003
0.052623209 -0.030344771 0.44100001
0.053270362 -0.030275961 0.44000003
0.054036845 -0.030275961 0.44000003
0.054678772 -0.030207153 0.43900001
0.055443507 -0.030207153 0.43900001
0.056080211 -0.030138344 0.43800002
0.056713428 -0.030069536 0.43700001
0.05747468 -0.030069536 0.43700001
0.058235936 -0.030069536 0.43700001
0.058862183 -0.030000726 0.43600002
0.059621695 -0.030000726 0.43600002
0.060381208 -0.030000726 0.43600002
0.06114072 -0.030000726 0.43600002
0.061900232 -0.030000726 0.43600002
0.06265974 -0.030000726 0.43600002
0.063419253 -0.030000726 0.43600002
0.064178765 -0.030000726 0.43600002
0.064938277 -0.030000726 0.43600002
0.065697789 -0.030000726 0.43600002
0.066457301 -0.030000726 0.43600002
0.067216814 -0.030000726 0.43600002
0.067976326 -0.030000726 0.43600002
0.068893492 -0.030069536 0.43700001
0.069654748 -0.030069536 0.43700001
0.070415996 -0.030069536 0.43700001
0.071503006 -0.030207153 0.43900001
0.072267748 -0.030207153 0.43900001
0.073198847 -0.030275961 0.44000003
0.073965326 -0.030275961 0.44000003
0.074901648 -0.030344771 0.44100001
0.07566987 -0.030344771 0.44100001
0.076611422 -0.030413579 0.44200003
0.077381387 -0.030413579 0.44200003
0.078151353 -0.030413579 0.44200003
0.048449378 -0.029844817 0.44500002
0.049224567 -0.029844817 0.44500002
0.0498874 -0.02977775 0.44400004
0.050660849 -0.02977775 0.44400004
0.051434293 -0.02977775 0.44400004
0.051972572 -0.029643616 0.44200003
0.052742537 -0.029643616 0.44200003
0.053391431 -0.029576549 0.44100001
0.054036845 -0.029509481 0.44000003
0.054803323 -0.029509481 0.44000003
0.055443507 -0.029442415 0.43900001
0.056080211 -0.029375348 0.43800002
0.056843206 -0.029375348 0.43800002
0.05747468 -0.02930828 0.43700001
0.058235936 -0.02930828 0.43700001
0.058997188 -0.02930828 0.43700001
0.059621695 -0.029241214 0.43600002
0.060381208 -0.029241214 0.43600002
0.06114072 -0.029241214 0.43600002
0.061900232 -0.029241214 0.43600002
0.06265974 -0.029241214 0.43600002
0.063419253 -0.029241214 0.43600002
0.064178765 -0.029241214 0.43600002
0.064938277 -0.029241214 0.43600002
0.065697789 -0.029241214 0.43600002
0.066457301 -0.029241214 0.43600002
0.067216814 -0.029241214 0.43600002
0.068132237 -0.02930828 0.43700001
0.068893492 -0.02930828 0.43700001
0.069814138 -0.029375348 0.43800002
0.070577137 -0.029375348 0.43800002
0.071503006 -0.029442415 0.43900001
0.072432362 -0.029509481 0.44000003
0.073198847 -0.029509481 0.44000003
0.074133426 -0.029576549 0.44100001
0.075071491 -0.029643616 0.44200003
0.075841457 -0.029643616 0.44200003
0.076611422 -0.029643616 0.44200003
0.077381387 -0.029643616 0.44200003
0.078328162 -0.029710682 0.44300002
0.048449378 -0.029069627 0.44500002
0.049224567 -0.029069627 0.44500002
0.049999759 -0.029069627 0.44500002
0.050660849 -0.029004302 0.44400004
0.051434293 -0.029004302 0.44400004
0.052090157 -0.028938977 0.44300002
0.052742537 -0.028873652 0.44200003
0.053391431 -0.028808327 0.44100001
0.054036845 -0.028743003 0.44000003
0.054803323 -0.028743003 0.44000003
0.055569805 -0.028743003 0.44000003
0.056208245 -0.028677676 0.43900001
0.056972984 -0.028677676 0.43900001
0.057606202 -0.028612351 0.43800002
0.058235936 -0.028547026 0.43700001
0.058997188 -0.028547026 0.43700001
0.059758443 -0.028547026 0.43700001
0.060519695 -0.028547026 0.43700001
0.061280951 -0.028547026 0.43700001
0.061900232 -0.028481701 0.43600002
0.06265974 -0.028481701 0.43600002
0.063419253 -0.028481701 0.43600002
0.064178765 -0.028481701 0.43600002
0.064938277 -0.028481701 0.43600002
0.065697789 -0.028481701 0.43600002
0.066609733 -0.028547026 0.43700001
0.067370981 -0.028547026 0.43700001
0.068132237 -0.028547026 0.43700001
0.069051139 -0.028612351 0.43800002
0.069814138 -0.028612351 0.43800002
0.070738271 -0.028677676 0.43900001
0.071503006 -0.028677676 0.43900001
0.072432362 -0.028743003 0.44000003
0.073198847 -0.028743003 0.44000003
0.074133426 -0.028808327 0.44100001
0.075071491 -0.028873652 0.44200003
0.075841457 -0.028873652 0.44200003
0.076611422 -0.028873652 0.44200003
0.077381387 -0.028873652 0.44200003
0.078328162 -0.028938977 0.44300002
0.048449378 -0.028294437 0.44500002
0.049335185 -0.02835802 0.44600001
0.049999759 -0.028294437 0.44500002
0.050774947 -0.028294437 0.44500002
0.051434293 -0.028230853 0.44400004
0.052207742 -0.028230853 0.44400004
0.052742537 -0.028103687 0.44200003
0.053512502 -0.028103687 0.44200003
0.054159656 -0.028040105 0.44100001
0.054803323 -0.027976522 0.44000003
0.055569805 -0.027976522 0.44000003
0.056208245 -0.027912939 0.43900001
0.056972984 -0.027912939 0.43900001
0.057737723 -0.027912939 0.43900001
0.058369197 -0.027849356 0.43800002
0.058997188 -0.027785772 0.43700001
0.059758443 -0.027785772 0.43700001
0.060519695 -0.027785772 0.43700001
0.061280951 -0.027785772 0.43700001
0.062042207 -0.027785772 0.43700001
0.062803462 -0.027785772 0.43700001
0.063419253 -0.027722189 0.43600002
0.064325966 -0.027785772 0.43700001
0.065087222 -0.027785772 0.43700001
0.065848477 -0.027785772 0.43700001
0.066609733 -0.027785772 0.43700001
0.067370981 -0.027785772 0.43700001
0.068132237 -0.027785772 0.43700001
0.069051139 -0.027849356 0.43800002
0.069973528 -0.027912939 0.43900001
0.070738271 -0.027912939 0.43900001
0.071665883 -0.027976522 0.44000003
0.072432362 -0.027976522 0.44000003
0.073365204 -0.028040105 0.44100001
0.074133426 -0.028040105 0.44100001
0.075071491 -0.028103687 0.44200003
0.075841457 -0.028103687 0.44200003
0.076611422 -0.028103687 0.44200003
0.077381387 -0.028103687 0.44200003
0.078151353 -0.028103687 0.44200003
0.048558254 -0.027581088 0.44600001
0.049335185 -0.027581088 0.44600001
0.049999759 -0.027519247 0.44500002
0.050774947 -0.027519247 0.44500002
0.051550139 -0.027519247 0.44500002
0.052207742 -0.027457405 0.44400004
0.052861866 -0.027395565 0.44300002
0.053512502 -0.027333723 0.44200003
0.054159656 -0.027271884 0.44100001
0.054927878 -0.027271884 0.44100001
0.055569805 -0.027210042 0.44000003
0.056336284 -0.027210042 0.44000003
0.056972984 -0.0271482 0.43900001
0.057737723 -0.0271482 0.43900001
0.058369197 -0.02708636 0.43800002
0.059132192 -0.02708636 0.43800002
0.059895191 -0.02708636 0.43800002
0.060519695 -0.027024519 0.43700001
0.061280951 -0.027024519 0.43700001
0.062042207 -0.027024519 0.43700001
0.062803462 -0.027024519 0.43700001
0.06356471 -0.027024519 0.43700001
0.064325966 -0.027024519 0.43700001
0.065087222 -0.027024519 0.43700001
0.065848477 -0.027024519 0.43700001
0.066609733 -0.027024519 0.43700001
0.067370981 -0.027024519 0.43700001
0.068288147 -0.02708636 0.43800002
0.069208793 -0.0271482 0.43900001
0.069973528 -0.0271482 0.43900001
0.070899405 -0.027210042 0.44000003
0.071665883 -0.027210042 0.44000003
0.072596982 -0.027271884 0.44100001
0.073365204 -0.027271884 0.44100001
0.074301533 -0.027333723 0.44200003
0.075071491 -0.027333723 0.44200003
0.075841457 -0.027333723 0.44200003
0.076611422 -0.027333723 0.44200003
0.077381387 -0.027333723 0.44200003
0.048558254 -0.026804157 0.44600001
0.049335185 -0.026804157 0.44600001
0.050112117 -0.026804157 0.44600001
0.050774947 -0.026744056 0.44500002
0.051550139 -0.026744056 0.44500002
0.052207742 -0.026683958 0.44400004
0.05298119 -0.026683958 0.44400004
0.053512502 -0.02656376 0.44200003
0.054282464 -0.02656376 0.44200003
0.054927878 -0.02650366 0.44100001
0.0556961 -0.02650366 0.44100001
0.056336284 -0.026443562 0.44000003
0.057102762 -0.026443562 0.44000003
0.057737723 -0.026383463 0.43900001
0.058502462 -0.026383463 0.43900001
0.059267201 -0.026383463 0.43900001
0.059895191 -0.026323363 0.43800002
0.060658187 -0.026323363 0.43800002
0.061421182 -0.026323363 0.43800002
0.062042207 -0.026263265 0.43700001
0.062803462 -0.026263265 0.43700001
0.06356471 -0.026263265 0.43700001
0.064473167 -0.026323363 0.43800002
0.065236159 -0.026323363 0.43800002
0.065999158 -0.026323363 0.43800002
0.066762157 -0.026323363 0.43800002
0.067679316 -0.026383463 0.43900001
0.068444058 -0.026383463 0.43900001
0.069208793 -0.026383463 0.43900001
0.070132926 -0.026443562 0.44000003
0.070899405 -0.026443562 0.44000003
0.07182876 -0.02650366 0.44100001
0.072596982 -0.02650366 0.44100001
0.073531568 -0.02656376 0.44200003
0.074301533 -0.02656376 0.44200003
0.075071491 -0.02656376 0.44200003
0.075841457 -0.02656376 0.44200003
0.076784752 -0.026623858 0.44300002
0.077556461 -0.026623858 0.44300002
0.048558254 -0.026027223 0.44600001
0.049335185 -0.026027223 0.44600001
0.050112117 -0.026027223 0.44600001
0.050774947 -0.025968866 0.44500002
0.051550139 -0.025968866 0.44500002
0.052207742 -0.02591051 0.44400004
0.05298119 -0.02591051 0.44400004
0.053633571 -0.025852153 0.44300002
0.054282464 -0.025793796 0.44200003
0.055052429 -0.025793796 0.44200003
0.0556961 -0.025735438 0.44100001
0.056336284 -0.025677081 0.44000003
0.057102762 -0.025677081 0.44000003
0.057869244 -0.025677081 0.44000003
0.058502462 -0.025618725 0.43900001
0.059267201 -0.025618725 0.43900001
0.060031936 -0.025618725 0.43900001
0.060796674 -0.025618725 0.43900001
0.061561413 -0.025618725 0.43900001
0.062326152 -0.025618725 0.43900001
0.063090891 -0.025618725 0.43900001
0.063855626 -0.025618725 0.43900001
0.064620368 -0.025618725 0.43900001
0.065385103 -0.025618725 0.43900001
0.066149838 -0.025618725 0.43900001
0.066914581 -0.025618725 0.43900001
0.067679316 -0.025618725 0.43900001
0.068444058 -0.025618725 0.43900001
0.069366448 -0.025677081 0.44000003
0.070132926 -0.025677081 0.44000003
0.070899405 -0.025677081 0.44000003
0.07182876 -0.025735438 0.44100001
0.072761603 -0.025793796 0.44200003
0.073531568 -0.025793796 0.44200003
0.074301533 -0.025793796 0.44200003
0.075071491 -0.025793796 0.44200003
0.075841457 -0.025793796 0.44200003
0.076784752 -0.025852153 0.44300002
0.077556461 -0.025852153 0.44300002
0.048776004 -0.025363522 0.44800001
0.0494458 -0.025306907 0.44700003
0.050224476 -0.025306907 0.44700003
0.050889049 -0.025250291 0.44600001
0.051550139 -0.025193676 0.44500002
0.052325327 -0.025193676 0.44500002
0.05298119 -0.025137061 0.44400004
0.053754639 -0.025137061 0.44400004
0.054405276 -0.025080446 0.44300002
0.055052429 -0.025023831 0.44200003
0.055822395 -0.025023831 0.44200003
0.056464322 -0.024967216 0.44100001
0.057232544 -0.024967216 0.44100001
0.057869244 -0.024910601 0.44000003
0.058635723 -0.024910601 0.44000003
0.059402205 -0.024910601 0.44000003
0.060031936 -0.024853986 0.43900001
0.060796674 -0.024853986 0.43900001
0.061561413 -0.024853986 0.43900001
0.062326152 -0.024853986 0.43900001
0.063090891 -0.024853986 0.43900001
0.063855626 -0.024853986 0.43900001
0.064620368 -0.024853986 0.43900001
0.065534048 -0.024910601 0.44000003
0.066300526 -0.024910601 0.44000003
0.067067005 -0.024910601 0.44000003
0.067833483 -0.024910601 0.44000003
0.068599962 -0.024910601 0.44000003
0.069366448 -0.024910601 0.44000003
0.070292316 -0.024967216 0.44100001
0.071060538 -0.024967216 0.44100001
0.071991637 -0.025023831 0.44200003
0.072761603 -0.025023831 0.44200003
0.073531568 -0.025023831 0.44200003
0.074469633 -0.025080446 0.44300002
0.075241342 -0.025080446 0.44300002
0.076013044 -0.025080446 0.44300002
0.076784752 -0.025080446 0.44300002
0.077906601 -0.025193676 0.44500002
0.048776004 -0.024583105 0.44800001
0.049556419 -0.024583105 0.44800001
0.050336834 -0.024583105 0.44800001
0.051003151 -0.024528233 0.44700003
0.05166598 -0.02447336 0.44600001
0.052325327 -0.024418486 0.44500002
0.053100519 -0.024418486 0.44500002
0.053754639 -0.024363613 0.44400004
0.054405276 -0.024308741 0.44300002
0.055052429 -0.024253868 0.44200003
0.055822395 -0.024253868 0.44200003
0.056592356 -0.024253868 0.44200003
0.057232544 -0.024198994 0.44100001
0.058000766 -0.024198994 0.44100001
0.058635723 -0.024144122 0.44000003
0.059402205 -0.024144122 0.44000003
0.060168684 -0.024144122 0.44000003
0.060935162 -0.024144122 0.44000003
0.061701644 -0.024144122 0.44000003
0.062326152 -0.024089249 0.43900001
0.063234605 -0.024144122 0.44000003
0.064001083 -0.024144122 0.44000003
0.064767562 -0.024144122 0.44000003
0.065534048 -0.024144122 0.44000003
0.066300526 -0.024144122 0.44000003
0.067067005 -0.024144122 0.44000003
0.067833483 -0.024144122 0.44000003
0.068599962 -0.024144122 0.44000003
0.069524094 -0.024198994 0.44100001
0.070292316 -0.024198994 0.44100001
0.071060538 -0.024198994 0.44100001
0.071991637 -0.024253868 0.44200003
0.072761603 -0.024253868 0.44200003
0.073697925 -0.024308741 0.44300002
0.074469633 -0.024308741 0.44300002
0.075411186 -0.024363613 0.44400004
0.07618463 -0.024363613 0.44400004
0.077131413 -0.024418486 0.44500002
0.077906601 -0.024418486 0.44500002
0.04888488 -0.02385582 0.44900003
0.049556419 -0.02380269 0.44800001
0.050336834 -0.02380269 0.44800001
0.051117253 -0.02380269 0.44800001
0.051781826 -0.023749558 0.44700003
0.052442912 -0.023696428 0.44600001
0.053100519 -0.023643296 0.44500002
0.053875707 -0.023643296 0.44500002
0.054528087 -0.023590166 0.44400004
0.055176981 -0.023537034 0.44300002
0.055822395 -0.023483904 0.44200003
0.056592356 -0.023483904 0.44200003
0.057362322 -0.023483904 0.44200003
0.058000766 -0.023430772 0.44100001
0.058768988 -0.023430772 0.44100001
0.059402205 -0.023377642 0.44000003
0.060168684 -0.023377642 0.44000003
0.060935162 -0.023377642 0.44000003
0.061701644 -0.023377642 0.44000003
0.062468123 -0.023377642 0.44000003
0.063234605 -0.023377642 0.44000003
0.064001083 -0.023377642 0.44000003
0.064767562 -0.023377642 0.44000003
0.065534048 -0.023377642 0.44000003
0.066451207 -0.023430772 0.44100001
0.067219429 -0.023430772 0.44100001
0.067987651 -0.023430772 0.44100001
0.068755873 -0.023430772 0.44100001
0.069524094 -0.023430772 0.44100001
0.070451714 -0.023483904 0.44200003
0.071221672 -0.023483904 0.44200003
0.071991637 -0.023483904 0.44200003
0.072761603 -0.023483904 0.44200003
0.073864289 -0.023590166 0.44400004
0.074637733 -0.023590166 0.44400004
0.075411186 -0.023590166 0.44400004
0.076527804 -0.023696428 0.44600001
0.077304736 -0.023696428 0.44600001
0.078081667 -0.023696428 0.44600001
0.078858607 -0.023696428 0.44600001
0.04888488 -0.023073662 0.44900003
0.049556419 -0.023022274 0.44800001
0.050336834 -0.023022274 0.44800001
0.051117253 -0.023022274 0.44800001
0.051897667 -0.023022274 0.44800001
0.052560497 -0.022970885 0.44700003
0.053219844 -0.022919495 0.44600001
0.053875707 -0.022868106 0.44500002
0.054528087 -0.022816718 0.44400004
0.055301536 -0.022816718 0.44400004
0.05594869 -0.022765329 0.44300002
0.056592356 -0.022713939 0.44200003
0.057362322 -0.022713939 0.44200003
0.058000766 -0.02266255 0.44100001
0.058768988 -0.02266255 0.44100001
0.05953721 -0.02266255 0.44100001
0.060168684 -0.022611162 0.44000003
0.060935162 -0.022611162 0.44000003
0.061701644 -0.022611162 0.44000003
0.062468123 -0.022611162 0.44000003
0.063234605 -0.022611162 0.44000003
0.064001083 -0.022611162 0.44000003
0.064767562 -0.022611162 0.44000003
0.065682985 -0.02266255 0.44100001
0.066451207 -0.02266255 0.44100001
0.067219429 -0.02266255 0.44100001
0.067987651 -0.02266255 0.44100001
0.068911783 -0.022713939 0.44200003
0.069681749 -0.022713939 0.44200003
0.070451714 -0.022713939 0.44200003
0.071221672 -0.022713939 0.44200003
0.071991637 -0.022713939 0.44200003
0.072926223 -0.022765329 0.44300002
0.074030653 -0.022868106 0.44500002
0.074805841 -0.022868106 0.44500002
0.075581029 -0.022868106 0.44500002
0.076527804 -0.022919495 0.44600001
0.077478066 -0.022970885 0.44700003
0.078256741 -0.022970885 0.44700003
0.048993751 -0.022341151 0.45000002
0.049667034 -0.022291504 0.44900003
0.050449193 -0.022291504 0.44900003
0.051231351 -0.022291504 0.44900003
0.051897667 -0.022241857 0.44800001
0.052678082 -0.022241857 0.44800001
0.053219844 -0.022142563 0.44600001
0.053996779 -0.022142563 0.44600001
0.054650899 -0.022092916 0.44500002
0.055301536 -0.022043269 0.44400004
0.05594869 -0.021993622 0.44300002
0.056592356 -0.021943975 0.44200003
0.057362322 -0.021943975 0.44200003
0.058132287 -0.021943975 0.44200003
0.058768988 -0.021894328 0.44100001
0.05953721 -0.021894328 0.44100001
0.060305431 -0.021894328 0.44100001
0.061073653 -0.021894328 0.44100001
0.061841875 -0.021894328 0.44100001
0.062468123 -0.021844681 0.44000003
0.063378319 -0.021894328 0.44100001
0.064146541 -0.021894328 0.44100001
0.064914763 -0.021894328 0.44100001
0.065682985 -0.021894328 0.44100001
0.066451207 -0.021894328 0.44100001
0.067371853 -0.021943975 0.44200003
0.068141818 -0.021943975 0.44200003
0.068911783 -0.021943975 0.44200003
0.069681749 -0.021943975 0.44200003
0.070451714 -0.021943975 0.44200003
0.071221672 -0.021943975 0.44200003
0.072154514 -0.021993622 0.44300002
0.073090844 -0.022043269 0.44400004
0.074030653 -0.022092916 0.44500002
0.074805841 -0.022092916 0.44500002
0.075750872 -0.022142563 0.44600001
0.076699391 -0.02219221 0.44700003
0.077478066 -0.02219221 0.44700003
0.078256741 -0.02219221 0.44700003
0.079035416 -0.02219221 0.44700003
0.049667034 -0.021509346 0.44900003
0.050449193 -0.021509346 0.44900003
0.051231351 -0.021509346 0.44900003
0.051897667 -0.021461442 0.44800001
0.052678082 -0.021461442 0.44800001
0.053339172 -0.021413537 0.44700003
0.053996779 -0.021365631 0.44600001
0.054650899 -0.021317726 0.44500002
0.055426087 -0.021317726 0.44500002
0.056074984 -0.021269821 0.44400004
0.056720395 -0.021221917 0.44300002
0.057362322 -0.021174012 0.44200003
0.058132287 -0.021174012 0.44200003
0.058902249 -0.021174012 0.44200003
0.05953721 -0.021126106 0.44100001
0.060305431 -0.021126106 0.44100001
0.061073653 -0.021126106 0.44100001
0.061841875 -0.021126106 0.44100001
0.062610097 -0.021126106 0.44100001
0.063378319 -0.021126106 0.44100001
0.064146541 -0.021126106 0.44100001
0.064914763 -0.021126106 0.44100001
0.065831929 -0.021174012 0.44200003
0.066601887 -0.021174012 0.44200003
0.067371853 -0.021174012 0.44200003
0.068141818 -0.021174012 0.44200003
0.068911783 -0.021174012 0.44200003
0.069839396 -0.021221917 0.44300002
0.070611104 -0.021221917 0.44300002
0.071382813 -0.021221917 0.44300002
0.072317392 -0.021269821 0.44400004
0.073090844 -0.021269821 0.44400004
0.074030653 -0.021317726 0.44500002
0.074805841 -0.021317726 0.44500002
0.075750872 -0.021365631 0.44600001
0.076699391 -0.021413537 0.44700003
0.077651396 -0.021461442 0.44800001
0.078256741 -0.021413537 0.44700003
0.079035416 -0.021413537 0.44700003
0.049667034 -0.020727187 0.44900003
0.050449193 -0.020727187 0.44900003
0.051231351 -0.020727187 0.44900003
0.051897667 -0.020681025 0.44800001
0.052678082 -0.020681025 0.44800001
0.053339172 -0.020634862 0.44700003
0.054117847 -0.020634862 0.44700003
0.054773711 -0.0205887 0.44600001
0.055426087 -0.020542536 0.44500002
0.056201279 -0.020542536 0.44500002
0.056848433 -0.020496374 0.44400004
0.0574921 -0.02045021 0.44300002
0.058132287 -0.020404046 0.44200003
0.058902249 -0.020404046 0.44200003
0.059672214 -0.020404046 0.44200003
0.060442179 -0.020404046 0.44200003
0.061212141 -0.020404046 0.44200003
0.061841875 -0.020357884 0.44100001
0.062610097 -0.020357884 0.44100001
0.063378319 -0.020357884 0.44100001
0.064291999 -0.020404046 0.44200003
0.065061964 -0.020404046 0.44200003
0.065831929 -0.020404046 0.44200003
0.066601887 -0.020404046 0.44200003
0.067371853 -0.020404046 0.44200003
0.068141818 -0.020404046 0.44200003
0.068911783 -0.020404046 0.44200003
0.069839396 -0.02045021 0.44300002
0.070770495 -0.020496374 0.44400004
0.071543947 -0.020496374 0.44400004
0.072317392 -0.020496374 0.44400004
0.073255457 -0.020542536 0.44500002
0.074197009 -0.0205887 0.44600001
0.074973941 -0.0205887 0.44600001
0.075920723 -0.020634862 0.44700003
0.076870978 -0.020681025 0.44800001
0.077651396 -0.020681025 0.44800001
0.078431815 -0.020681025 0.44800001
0.050449193 -0.019945031 0.44900003
0.051231351 -0.019945031 0.44900003
0.051897667 -0.019900609 0.44800001
0.052678082 -0.019900609 0.44800001
0.053458501 -0.019900609 0.44800001
0.054117847 -0.019856188 0.44700003
0.054773711 -0.019811768 0.44600001
0.055550642 -0.019811768 0.44600001
0.056201279 -0.019767346 0.44500002
0.056976467 -0.019767346 0.44500002
0.057621881 -0.019722925 0.44400004
0.058263808 -0.019678505 0.44300002
0.058902249 -0.019634083 0.44200003
0.059672214 -0.019634083 0.44200003
0.060442179 -0.019634083 0.44200003
0.061212141 -0.019634083 0.44200003
0.061982106 -0.019634083 0.44200003
0.062752068 -0.019634083 0.44200003
0.063522033 -0.019634083 0.44200003
0.064291999 -0.019634083 0.44200003
0.065061964 -0.019634083 0.44200003
0.065980867 -0.019678505 0.44300002
0.066601887 -0.019634083 0.44200003
0.067524277 -0.019678505 0.44300002
0.068295985 -0.019678505 0.44300002
0.069223598 -0.019722925 0.44400004
0.06999705 -0.019722925 0.44400004
0.070770495 -0.019722925 0.44400004
0.071543947 -0.019722925 0.44400004
0.072480269 -0.019767346 0.44500002
0.073255457 -0.019767346 0.44500002
0.074197009 -0.019811768 0.44600001
0.074973941 -0.019811768 0.44600001
0.075920723 -0.019856188 0.44700003
0.076527804 -0.019811768 0.44600001
0.077651396 -0.019900609 0.44800001
0.050449193 -0.019162873 0.44900003
0.051231351 -0.019162873 0.44900003
0.052013509 -0.019162873 0.44900003
0.052678082 -0.019120194 0.44800001
0.053458501 -0.019120194 0.44800001
0.054238915 -0.019120194 0.44800001
0.054896519 -0.019077513 0.44700003
0.055550642 -0.019034835 0.44600001
0.056327574 -0.019034835 0.44600001
0.056976467 -0.018992156 0.44500002
0.057751659 -0.018992156 0.44500002
0.058395326 -0.018949477 0.44400004
0.059035514 -0.018906798 0.44300002
0.059807219 -0.018906798 0.44300002
0.060578924 -0.018906798 0.44300002
0.061350632 -0.018906798 0.44300002
0.062122338 -0.018906798 0.44300002
0.062894046 -0.018906798 0.44300002
0.063665748 -0.018906798 0.44300002
0.064437456 -0.018906798 0.44300002
0.065356359 -0.018949477 0.44400004
0.066129811 -0.018949477 0.44400004
0.066903256 -0.018949477 0.44400004
0.067676701 -0.018949477 0.44400004
0.068450153 -0.018949477 0.44400004
0.069223598 -0.018949477 0.44400004
0.06999705 -0.018949477 0.44400004
0.070929892 -0.018992156 0.44500002
0.071705081 -0.018992156 0.44500002
0.072480269 -0.018992156 0.44500002
0.073420078 -0.019034835 0.44600001
0.074197009 -0.019034835 0.44600001
0.075142048 -0.019077513 0.44700003
0.075920723 -0.019077513 0.44700003
0.049429253 -0.018585399 0.45400003
0.050109506 -0.018544462 0.45300001
0.050673913 -0.018462589 0.45100003
0.051459555 -0.018462589 0.45100003
0.052013509 -0.018380715 0.44900003
0.052795667 -0.018380715 0.44900003
0.053458501 -0.018339777 0.44800001
0.054238915 -0.018339777 0.44800001
0.054896519 -0.01829884 0.44700003
0.055675194 -0.01829884 0.44700003
0.056327574 -0.018257903 0.44600001
0.057104506 -0.018257903 0.44600001
0.057751659 -0.018216966 0.44500002
0.058526848 -0.018216966 0.44500002
0.059168775 -0.018176029 0.44400004
0.059942223 -0.018176029 0.44400004
0.060715672 -0.018176029 0.44400004
0.06148912 -0.018176029 0.44400004
0.062262569 -0.018176029 0.44400004
0.063036017 -0.018176029 0.44400004
0.063809462 -0.018176029 0.44400004
0.064582914 -0.018176029 0.44400004
0.065356359 -0.018176029 0.44400004
0.066129811 -0.018176029 0.44400004
0.066903256 -0.018176029 0.44400004
0.067676701 -0.018176029 0.44400004
0.068450153 -0.018176029 0.44400004
0.069379508 -0.018216966 0.44500002
0.070154697 -0.018216966 0.44500002
0.070929892 -0.018216966 0.44500002
0.071705081 -0.018216966 0.44500002
0.072643146 -0.018257903 0.44600001
0.073584698 -0.01829884 0.44700003
0.074363373 -0.01829884 0.44700003
0.075310148 -0.018339777 0.44800001
0.049429253 -0.017794531 0.45400003
0.050220121 -0.017794531 0.45400003
0.050786272 -0.017716141 0.45200002
0.051459555 -0.017676946 0.45100003
0.052129354 -0.017637752 0.45000002
0.052795667 -0.017598556 0.44900003
0.053577825 -0.017598556 0.44900003
0.054238915 -0.017559361 0.44800001
0.05501933 -0.017559361 0.44800001
0.055675194 -0.017520167 0.44700003
0.056327574 -0.017480971 0.44600001
0.057104506 -0.017480971 0.44600001
0.057881437 -0.017480971 0.44600001
0.058526848 -0.017441776 0.44500002
0.059302039 -0.017441776 0.44500002
0.060077228 -0.017441776 0.44500002
0.060715672 -0.017402582 0.44400004
0.06148912 -0.017402582 0.44400004
0.062262569 -0.017402582 0.44400004
0.063036017 -0.017402582 0.44400004
0.063809462 -0.017402582 0.44400004
0.064582914 -0.017402582 0.44400004
0.065356359 -0.017402582 0.44400004
0.066129811 -0.017402582 0.44400004
0.066903256 -0.017402582 0.44400004
0.067676701 -0.017402582 0.44400004
0.06860432 -0.017441776 0.44500002
0.069379508 -0.017441776 0.44500002
0.070154697 -0.017441776 0.44500002
0.070929892 -0.017441776 0.44500002
0.071866214 -0.017480971 0.44600001
0.072643146 -0.017480971 0.44600001
0.073584698 -0.017520167 0.44700003
0.074363373 -0.017520167 0.44700003
0.075142048 -0.017520167 0.44700003
0.049538128 -0.017041117 0.45500001
0.050220121 -0.017003663 0.45400003
0.050786272 -0.016928757 0.45200002
0.051459555 -0.016891304 0.45100003
0.052245196 -0.016891304 0.45100003
0.052913252 -0.01685385 0.45000002
0.053577825 -0.016816398 0.44900003
0.054359984 -0.016816398 0.44900003
0.05501933 -0.016778946 0.44800001
0.055799749 -0.016778946 0.44800001
0.056453869 -0.016741492 0.44700003
0.057104506 -0.01670404 0.44600001
0.057881437 -0.01670404 0.44600001
0.058658369 -0.01670404 0.44600001
0.059302039 -0.016666586 0.44500002
0.060077228 -0.016666586 0.44500002
0.06085242 -0.016666586 0.44500002
0.061627608 -0.016666586 0.44500002
0.0624028 -0.016666586 0.44500002
0.063036017 -0.016629133 0.44400004
0.063809462 -0.016629133 0.44400004
0.064582914 -0.016629133 0.44400004
0.065356359 -0.016629133 0.44400004
0.066278748 -0.016666586 0.44500002
0.067053936 -0.016666586 0.44500002
0.067829132 -0.016666586 0.44500002
0.06860432 -0.016666586 0.44500002
0.069379508 -0.016666586 0.44500002
0.070312351 -0.01670404 0.44600001
0.071089283 -0.01670404 0.44600001
0.071866214 -0.01670404 0.44600001
0.072806023 -0.016741492 0.44700003
0.073749319 -0.016778946 0.44800001
0.07452973 -0.016778946 0.44800001
0.050220121 -0.016212795 0.45400003
0.050786272 -0.016141374 0.45200002
0.051459555 -0.016105661 0.45100003
0.052245196 -0.016105661 0.45100003
0.053030837 -0.016105661 0.45100003
0.053577825 -0.01603424 0.44900003
0.054359984 -0.01603424 0.44900003
0.05501933 -0.015998529 0.44800001
0.055799749 -0.015998529 0.44800001
0.056453869 -0.015962819 0.44700003
0.057104506 -0.015927106 0.44600001
0.057881437 -0.015927106 0.44600001
0.058658369 -0.015927106 0.44600001
0.059435301 -0.015927106 0.44600001
0.060212232 -0.015927106 0.44600001
0.06085242 -0.015891396 0.44500002
0.061627608 -0.015891396 0.44500002
0.0624028 -0.015891396 0.44500002
0.063177988 -0.015891396 0.44500002
0.063953176 -0.015891396 0.44500002
0.064728372 -0.015891396 0.44500002
0.06550356 -0.015891396 0.44500002
0.066278748 -0.015891396 0.44500002
0.067053936 -0.015891396 0.44500002
0.067829132 -0.015891396 0.44500002
0.068758488 -0.015927106 0.44600001
0.069535419 -0.015927106 0.44600001
0.070312351 -0.015927106 0.44600001
0.071089283 -0.015927106 0.44600001
0.072027348 -0.015962819 0.44700003
0.0729689 -0.015998529 0.44800001
0.073913939 -0.01603424 0.44900003
0.074696094 -0.01603424 0.44900003
0.050220121 -0.015421927 0.45400003
0.050786272 -0.015353989 0.45200002
0.051573656 -0.015353989 0.45200002
0.052245196 -0.01532002 0.45100003
0.053030837 -0.01532002 0.45100003
0.053697154 -0.015286051 0.45000002
0.054359984 -0.015252082 0.44900003
0.055142142 -0.015252082 0.44900003
0.055799749 -0.015218113 0.44800001
0.056580164 -0.015218113 0.44800001
0.057232544 -0.015184144 0.44700003
0.057881437 -0.015150174 0.44600001
0.058658369 -0.015150174 0.44600001
0.059435301 -0.015150174 0.44600001
0.060212232 -0.015150174 0.44600001
0.060989168 -0.015150174 0.44600001
0.061766099 -0.015150174 0.44600001
0.0624028 -0.015116206 0.44500002
0.063319959 -0.015150174 0.44600001
0.06409689 -0.015150174 0.44600001
0.064728372 -0.015116206 0.44500002
0.06550356 -0.015116206 0.44500002
0.066278748 -0.015116206 0.44500002
0.067053936 -0.015116206 0.44500002
0.067981556 -0.015150174 0.44600001
0.068758488 -0.015150174 0.44600001
0.069535419 -0.015150174 0.44600001
0.070469998 -0.015184144 0.44700003
0.071248673 -0.015184144 0.44700003
0.072188482 -0.015218113 0.44800001
0.073131777 -0.015252082 0.44900003
0.073913939 -0.015252082 0.44900003
0.074862458 -0.015286051 0.45000002
0.075814456 -0.01532002 0.45100003
0.051573656 -0.014566605 0.45200002
0.052361038 -0.014566605 0.45200002
0.053030837 -0.014534377 0.45100003
0.053816479 -0.014534377 0.45100003
0.054359984 -0.014469923 0.44900003
0.055142142 -0.014469923 0.44900003
0.0559243 -0.014469923 0.44900003
0.056580164 -0.014437697 0.44800001
0.057360578 -0.014437697 0.44800001
0.058011215 -0.01440547 0.44700003
0.05878989 -0.01440547 0.44700003
0.059435301 -0.014373243 0.44600001
0.060212232 -0.014373243 0.44600001
0.060989168 -0.014373243 0.44600001
0.061766099 -0.014373243 0.44600001
0.062543027 -0.014373243 0.44600001
0.063319959 -0.014373243 0.44600001
0.06409689 -0.014373243 0.44600001
0.064873829 -0.014373243 0.44600001
0.065650761 -0.014373243 0.44600001
0.066427693 -0.014373243 0.44600001
0.067204624 -0.014373243 0.44600001
0.06813398 -0.01440547 0.44700003
0.068912655 -0.01440547 0.44700003
0.06969133 -0.01440547 0.44700003
0.070469998 -0.01440547 0.44700003
0.071408071 -0.014437697 0.44800001
0.072188482 -0.014437697 0.44800001
0.073131777 -0.014469923 0.44900003
0.074078552 -0.014502151 0.45000002
0.075028814 -0.014534377 0.45100003
0.075982563 -0.014566605 0.45200002
0.051573656 -0.013779221 0.45200002
0.052361038 -0.013779221 0.45200002
0.053030837 -0.013748736 0.45100003
0.053816479 -0.013748736 0.45100003
0.054481052 -0.013718251 0.45000002
0.055264954 -0.013718251 0.45000002
0.0559243 -0.013687766 0.44900003
0.056706458 -0.013687766 0.44900003
0.057360578 -0.013657281 0.44800001
0.058011215 -0.013626796 0.44700003
0.05878989 -0.013626796 0.44700003
0.059568565 -0.013626796 0.44700003
0.060212232 -0.013596311 0.44600001
0.060989168 -0.013596311 0.44600001
0.061766099 -0.013596311 0.44600001
0.062543027 -0.013596311 0.44600001
0.063461937 -0.013626796 0.44700003
0.064240612 -0.013626796 0.44700003
0.06501928 -0.013626796 0.44700003
0.065797955 -0.013626796 0.44700003
0.06657663 -0.013626796 0.44700003
0.067355305 -0.013626796 0.44700003
0.068286404 -0.013657281 0.44800001
0.068912655 -0.013626796 0.44700003
0.06969133 -0.013626796 0.44700003
0.070627652 -0.013657281 0.44800001
0.071408071 -0.013657281 0.44800001
0.072349623 -0.013687766 0.44900003
0.073131777 -0.013687766 0.44900003
0.074243173 -0.013748736 0.45100003
0.075195178 -0.013779221 0.45200002
0.075982563 -0.013779221 0.45200002
0.076939791 -0.013809706 0.45300001
0.077728912 -0.013809706 0.45300001
0.051687755 -0.01302058 0.45300001
0.052361038 -0.012991837 0.45200002
0.053148422 -0.012991837 0.45200002
0.053935807 -0.012991837 0.45200002
0.054602124 -0.012963094 0.45100003
0.055264954 -0.01293435 0.45000002
0.0559243 -0.012905608 0.44900003
0.056706458 -0.012905608 0.44900003
0.057360578 -0.012876865 0.44800001
0.058140997 -0.012876865 0.44800001
0.05878989 -0.012848122 0.44700003
0.059568565 -0.012848122 0.44700003
0.06034724 -0.012848122 0.44700003
0.061125912 -0.012848122 0.44700003
0.061904587 -0.012848122 0.44700003
0.062823489 -0.012876865 0.44800001
0.063603908 -0.012876865 0.44800001
0.064384326 -0.012876865 0.44800001
0.065164737 -0.012876865 0.44800001
0.065945156 -0.012876865 0.44800001
0.066725574 -0.012876865 0.44800001
0.067505985 -0.012876865 0.44800001
0.068286404 -0.012876865 0.44800001
0.069066823 -0.012876865 0.44800001
0.069847234 -0.012876865 0.44800001
0.070627652 -0.012876865 0.44800001
0.071567461 -0.012905608 0.44900003
0.072349623 -0.012905608 0.44900003
0.073294654 -0.01293435 0.45000002
0.074243173 -0.012963094 0.45100003
0.075361535 -0.01302058 0.45300001
0.076150663 -0.01302058 0.45300001
0.077109635 -0.013049323 0.45400003
0.077900507 -0.013049323 0.45400003
0.078691371 -0.013049323 0.45400003
0.052476883 -0.012231453 0.45300001
0.053148422 -0.012204452 0.45200002
0.053935807 -0.012204452 0.45200002
0.054723192 -0.012204452 0.45200002
0.055387765 -0.012177452 0.45100003
0.056173407 -0.012177452 0.45100003
0.056706458 -0.01212345 0.44900003
0.057488617 -0.01212345 0.44900003
0.058140997 -0.012096449 0.44800001
0.058921412 -0.012096449 0.44800001
0.059701826 -0.012096449 0.44800001
0.06034724 -0.012069448 0.44700003
0.06126266 -0.012096449 0.44800001
0.062043075 -0.012096449 0.44800001
0.062823489 -0.012096449 0.44800001
0.063603908 -0.012096449 0.44800001
0.064384326 -0.012096449 0.44800001
0.065164737 -0.012096449 0.44800001
0.065945156 -0.012096449 0.44800001
0.066725574 -0.012096449 0.44800001
0.067505985 -0.012096449 0.44800001
0.068286404 -0.012096449 0.44800001
0.069066823 -0.012096449 0.44800001
0.069847234 -0.012096449 0.44800001
0.070785306 -0.01212345 0.44900003
0.071567461 -0.01212345 0.44900003
0.072510757 -0.012150451 0.45000002
0.073457532 -0.012177452 0.45100003
0.074407794 -0.012204452 0.45200002
0.075361535 -0.012231453 0.45300001
0.076150663 -0.012231453 0.45300001
0.077109635 -0.012258455 0.45400003
0.077900507 -0.012258455 0.45400003
0.078691371 -0.012258455 0.45400003
0.051915959 -0.011492846 0.45500001
0.052592725 -0.011467586 0.45400003
0.053383593 -0.011467586 0.45400003
0.054055136 -0.011442328 0.45300001
0.054723192 -0.011417069 0.45200002
0.055510577 -0.011417069 0.45200002
0.056173407 -0.01139181 0.45100003
0.056959048 -0.01139181 0.45100003
0.057616655 -0.011366551 0.45000002
0.058270775 -0.011341291 0.44900003
0.059052933 -0.011341291 0.44900003
0.059835091 -0.011341291 0.44900003
0.060482245 -0.011316033 0.44800001
0.06126266 -0.011316033 0.44800001
0.062181566 -0.011341291 0.44900003
0.062963724 -0.011341291 0.44900003
0.063745879 -0.011341291 0.44900003
0.064528041 -0.011341291 0.44900003
0.065310195 -0.011341291 0.44900003
0.066092357 -0.011341291 0.44900003
0.066874512 -0.011341291 0.44900003
0.067656673 -0.011341291 0.44900003
0.068438828 -0.011341291 0.44900003
0.06922099 -0.011341291 0.44900003
0.070003144 -0.011341291 0.44900003
0.070785306 -0.011341291 0.44900003
0.071886249 -0.01139181 0.45100003
0.07267189 -0.01139181 0.45100003
0.073620409 -0.011417069 0.45200002
0.074572414 -0.011442328 0.45300001
0.075527899 -0.011467586 0.45400003
0.076318763 -0.011467586 0.45400003
0.077109635 -0.011467586 0.45400003
0.077900507 -0.011467586 0.45400003
0.078691371 -0.011467586 0.45400003
0.05270857 -0.010700236 0.45500001
0.053383593 -0.010676718 0.45400003
0.054055136 -0.010653201 0.45300001
0.054723192 -0.010629685 0.45200002
0.055510577 -0.010629685 0.45200002
0.056297958 -0.010629685 0.45200002
0.056959048 -0.010606168 0.45100003
0.057744689 -0.010606168 0.45100003
0.058530334 -0.010606168 0.45100003
0.059315976 -0.010606168 0.45100003
0.059968352 -0.010582651 0.45000002
0.060617249 -0.010559133 0.44900003
0.061399408 -0.010559133 0.44900003
0.062181566 -0.010559133 0.44900003
0.062963724 -0.010559133 0.44900003
0.063745879 -0.010559133 0.44900003
0.064528041 -0.010559133 0.44900003
0.065310195 -0.010559133 0.44900003
0.066092357 -0.010559133 0.44900003
0.066874512 -0.010559133 0.44900003
0.067656673 -0.010559133 0.44900003
0.068438828 -0.010559133 0.44900003
0.06922099 -0.010559133 0.44900003
0.070003144 -0.010559133 0.44900003
0.070942953 -0.010582651 0.45000002
0.071886249 -0.010606168 0.45100003
0.072833024 -0.010629685 0.45200002
0.073620409 -0.010629685 0.45200002
0.074572414 -0.010653201 0.45300001
0.075527899 -0.010676718 0.45400003
0.076318763 -0.010676718 0.45400003
0.077279478 -0.010700236 0.45500001
0.078072093 -0.010700236 0.45500001
0.078864701 -0.010700236 0.45500001
0.05270857 -0.0099076256 0.45500001
0.053501178 -0.0099076256 0.45500001
0.05417446 -0.0098858504 0.45400003
0.05484426 -0.009864076 0.45300001
0.055510577 -0.0098423008 0.45200002
0.056297958 -0.0098423008 0.45200002
0.057085343 -0.0098423008 0.45200002
0.057744689 -0.0098205255 0.45100003
0.058530334 -0.0098205255 0.45100003
0.059315976 -0.0098205255 0.45100003
0.060101617 -0.0098205255 0.45100003
0.060752254 -0.0097987503 0.45000002
0.061536156 -0.0097987503 0.45000002
0.062320054 -0.0097987503 0.45000002
0.063103952 -0.0097987503 0.45000002
0.063745879 -0.009776976 0.44900003
0.064528041 -0.009776976 0.44900003
0.065310195 -0.009776976 0.44900003
0.066092357 -0.009776976 0.44900003
0.066874512 -0.009776976 0.44900003
0.067656673 -0.009776976 0.44900003
0.068438828 -0.009776976 0.44900003
0.06922099 -0.009776976 0.44900003
0.070159055 -0.0097987503 0.45000002
0.071100608 -0.0098205255 0.45100003
0.072045639 -0.0098423008 0.45200002
0.072833024 -0.0098423008 0.45200002
0.073783286 -0.009864076 0.45300001
0.074737027 -0.0098858504 0.45400003
0.075527899 -0.0098858504 0.45400003
0.076486871 -0.0099076256 0.45500001
0.077449322 -0.0099294009 0.45600003
0.07824368 -0.0099294009 0.45600003
0.051348068 -0.0091550816 0.45700002
0.052144159 -0.0091550816 0.45700002
0.052824412 -0.0091350488 0.45600003
0.053501178 -0.0091150152 0.45500001
0.05417446 -0.0090949824 0.45400003
0.054965328 -0.0090949824 0.45400003
0.055633385 -0.0090749497 0.45300001
0.056297958 -0.0090549169 0.45200002
0.057085343 -0.0090549169 0.45200002
0.057872728 -0.0090549169 0.45200002
0.058530334 -0.0090348832 0.45100003
0.059315976 -0.0090348832 0.45100003
0.060101617 -0.0090348832 0.45100003
0.060887258 -0.0090348832 0.45100003
0.0616729 -0.0090348832 0.45100003
0.062458541 -0.0090348832 0.45100003
0.063244186 -0.0090348832 0.45100003
0.064029828 -0.0090348832 0.45100003
0.064671755 -0.0090148505 0.45000002
0.065455653 -0.0090148505 0.45000002
0.066239551 -0.0090148505 0.45000002
0.067023456 -0.0090148505 0.45000002
0.067807354 -0.0090148505 0.45000002
0.068591252 -0.0090148505 0.45000002
0.069375157 -0.0090148505 0.45000002
0.070314966 -0.0090348832 0.45100003
0.071100608 -0.0090348832 0.45100003
0.072045639 -0.0090549169 0.45200002
0.072994158 -0.0090749497 0.45300001
0.073946163 -0.0090949824 0.45400003
0.074737027 -0.0090949824 0.45400003
0.075527899 -0.0090949824 0.45400003
0.076486871 -0.0091150152 0.45500001
0.077279478 -0.0091150152 0.45500001
0.078072093 -0.0091150152 0.45500001
0.078864701 -0.0091150152 0.45500001
0.050773207 -0.0083955694 0.45900002
0.051348068 -0.008358988 0.45700002
0.052144159 -0.008358988 0.45700002
0.052940253 -0.008358988 0.45700002
0.053618763 -0.0083406968 0.45600003
0.054293789 -0.0083224056 0.45500001
0.054965328 -0.0083041145 0.45400003
0.055756196 -0.0083041145 0.45400003
0.056422513 -0.0082858233 0.45300001
0.057211637 -0.0082858233 0.45300001
0.057872728 -0.0082675321 0.45200002
0.058660112 -0.0082675321 0.45200002
0.059447497 -0.0082675321 0.45200002
0.060101617 -0.0082492419 0.45100003
0.060887258 -0.0082492419 0.45100003
0.0616729 -0.0082492419 0.45100003
0.062458541 -0.0082492419 0.45100003
0.063244186 -0.0082492419 0.45100003
0.064029828 -0.0082492419 0.45100003
0.064815469 -0.0082492419 0.45100003
0.06560111 -0.0082492419 0.45100003
0.066386752 -0.0082492419 0.45100003
0.067172393 -0.0082492419 0.45100003
0.067958035 -0.0082492419 0.45100003
0.068743676 -0.0082492419 0.45100003
0.069529325 -0.0082492419 0.45100003
0.07047087 -0.0082675321 0.45200002
0.071258254 -0.0082675321 0.45200002
0.072045639 -0.0082675321 0.45200002
0.073155291 -0.0083041145 0.45400003
0.073946163 -0.0083041145 0.45400003
0.074901648 -0.0083224056 0.45500001
0.075694263 -0.0083224056 0.45500001
0.076654971 -0.0083406968 0.45600003
0.077449322 -0.0083406968 0.45600003
0.07824368 -0.0083406968 0.45600003
0.079038031 -0.0083406968 0.45600003
0.050773207 -0.0075959913 0.45900002
0.051460426 -0.0075794426 0.45800003
0.052144159 -0.0075628934 0.45700002
0.052940253 -0.0075628934 0.45700002
0.053736348 -0.0075628934 0.45700002
0.054293789 -0.0075297956 0.45500001
0.055086397 -0.0075297956 0.45500001
0.055756196 -0.0075132465 0.45400003
0.056547064 -0.0075132465 0.45400003
0.057211637 -0.0074966974 0.45300001
0.057872728 -0.0074801487 0.45200002
0.058660112 -0.0074801487 0.45200002
0.059447497 -0.0074801487 0.45200002
0.060234878 -0.0074801487 0.45200002
0.060887258 -0.0074635996 0.45100003
0.0616729 -0.0074635996 0.45100003
0.062458541 -0.0074635996 0.45100003
0.063244186 -0.0074635996 0.45100003
0.064029828 -0.0074635996 0.45100003
0.064815469 -0.0074635996 0.45100003
0.06560111 -0.0074635996 0.45100003
0.066386752 -0.0074635996 0.45100003
