# .PCD v0.7 - Point Cloud Data file format
VERSION 0.7
FIELDS x y z
SIZE 4 4 4
TYPE F F F
COUNT 1 1 1
WIDTH 1339
HEIGHT 1
VIEWPOINT 0 0 0 1 0 0 0
POINTS 1339
DATA ascii
0.0814237 -0.05342279 0.42300001
0.082160562 -0.05342279 0.42300001
0.082701452 -0.053296492 0.42200002
0.083436579 -0.053296492 0.42200002
0.084171705 -0.053296492 0.42200002
0.084906824 -0.053296492 0.42200002
0.085439011 -0.053170197 0.42100003
0.086172387 -0.053170197 0.42100003
0.08690577 -0.053170197 0.42100003
0.087639153 -0.053170197 0.42100003
0.088162623 -0.053043902 0.42000002
0.088894263 -0.053043902 0.42000002
0.089625902 -0.053043902 0.42000002
0.090357542 -0.053043902 0.42000002
0.091089189 -0.053043902 0.42000002
0.091820829 -0.053043902 0.42000002
0.092552468 -0.053043902 0.42000002
0.093284108 -0.053043902 0.42000002
0.094015747 -0.053043902 0.42000002
0.094972976 -0.053170197 0.42100003
0.095706359 -0.053170197 0.42100003
0.096439742 -0.053170197 0.42100003
0.097173125 -0.053170197 0.42100003
0.098139063 -0.053296492 0.42200002
0.09910848 -0.05342279 0.42300001
0.09984535 -0.05342279 0.42300001
0.10058221 -0.05342279 0.42300001
0.1015586 -0.053549085 0.42400002
0.073292911 -0.05430511 0.43600002
0.07388258 -0.054180559 0.43500003
0.074640349 -0.054180559 0.43500003
0.075224787 -0.054056004 0.43400002
0.07598082 -0.054056004 0.43400002
0.07680653 -0.053059582 0.42600003
0.078290708 -0.053059582 0.42600003
0.079032801 -0.053059582 0.42600003
0.079587631 -0.052935027 0.42500001
0.08032798 -0.052935027 0.42500001
0.08106833 -0.052935027 0.42500001
0.081616186 -0.052810475 0.42400002
0.082160562 -0.052685924 0.42300001
0.082701452 -0.052561369 0.42200002
0.083436579 -0.052561369 0.42200002
0.084171705 -0.052561369 0.42200002
0.084906824 -0.052561369 0.42200002
0.08564195 -0.052561369 0.42200002
0.086172387 -0.052436817 0.42100003
0.08690577 -0.052436817 0.42100003
0.087639153 -0.052436817 0.42100003
0.088372536 -0.052436817 0.42100003
0.088894263 -0.052312262 0.42000002
0.089625902 -0.052312262 0.42000002
0.090357542 -0.052312262 0.42000002
0.091089189 -0.052312262 0.42000002
0.091820829 -0.052312262 0.42000002
0.092552468 -0.052312262 0.42000002
0.093284108 -0.052312262 0.42000002
0.094239593 -0.052436817 0.42100003
0.094972976 -0.052436817 0.42100003
0.095706359 -0.052436817 0.42100003
0.09666881 -0.052561369 0.42200002
0.097403936 -0.052561369 0.42200002
0.098371617 -0.052685924 0.42300001
0.09910848 -0.052685924 0.42300001
0.09984535 -0.052685924 0.42300001
0.10082 -0.052810475 0.42400002
0.1015586 -0.052810475 0.42400002
0.073292911 -0.053545598 0.43600002
0.07388258 -0.05342279 0.43500003
0.074640349 -0.05342279 0.43500003
0.075224787 -0.053299978 0.43400002
0.07598082 -0.053299978 0.43400002
0.076383218 -0.053054355 0.43200001
0.077135764 -0.053054355 0.43200001
0.077708013 -0.052931543 0.43100002
0.077730656 -0.052440301 0.42700002
0.078474492 -0.052440301 0.42700002
0.079032801 -0.052317489 0.42600003
0.079587631 -0.052194677 0.42500001
0.08032798 -0.052194677 0.42500001
0.08106833 -0.052194677 0.42500001
0.081616186 -0.052071866 0.42400002
0.082354799 -0.052071866 0.42400002
0.082897432 -0.051949058 0.42300001
0.083436579 -0.051826246 0.42200002
0.084171705 -0.051826246 0.42200002
0.084906824 -0.051826246 0.42200002
0.08564195 -0.051826246 0.42200002
0.086377077 -0.051826246 0.42200002
0.08690577 -0.051703434 0.42100003
0.087639153 -0.051703434 0.42100003
0.088372536 -0.051703434 0.42100003
0.089105919 -0.051703434 0.42100003
0.089839302 -0.051703434 0.42100003
0.090572685 -0.051703434 0.42100003
0.091089189 -0.051580623 0.42000002
0.091820829 -0.051580623 0.42000002
0.092772827 -0.051703434 0.42100003
0.09350621 -0.051703434 0.42100003
0.094239593 -0.051703434 0.42100003
0.094972976 -0.051703434 0.42100003
0.095933691 -0.051826246 0.42200002
0.096897885 -0.051949058 0.42300001
0.097634748 -0.051949058 0.42300001
0.098604172 -0.052071866 0.42400002
0.099342786 -0.052071866 0.42400002
0.10008139 -0.052071866 0.42400002
0.10082 -0.052071866 0.42400002
0.073292911 -0.052786086 0.43600002
0.07388258 -0.052665018 0.43500003
0.074640349 -0.052665018 0.43500003
0.075224787 -0.052543949 0.43400002
0.07598082 -0.052543949 0.43400002
0.076383218 -0.052301813 0.43200001
0.077135764 -0.052301813 0.43200001
0.077708013 -0.052180741 0.43100002
0.078276776 -0.052059673 0.43000001
0.078658275 -0.051817536 0.42800003
0.079218328 -0.051696464 0.42700002
0.079774894 -0.051575396 0.42600003
0.08032798 -0.051454328 0.42500001
0.08106833 -0.051454328 0.42500001
0.081808679 -0.051454328 0.42500001
0.082354799 -0.05133326 0.42400002
0.083093405 -0.05133326 0.42400002
0.083634295 -0.051212192 0.42300001
0.084371164 -0.051212192 0.42300001
0.085108027 -0.051212192 0.42300001
0.08564195 -0.05109112 0.42200002
0.086377077 -0.05109112 0.42200002
0.087112196 -0.05109112 0.42200002
0.087847322 -0.05109112 0.42200002
0.088372536 -0.050970051 0.42100003
0.089105919 -0.050970051 0.42100003
0.089839302 -0.050970051 0.42100003
0.090572685 -0.050970051 0.42100003
0.091306068 -0.050970051 0.42100003
0.092039444 -0.050970051 0.42100003
0.092772827 -0.050970051 0.42100003
0.09350621 -0.050970051 0.42100003
0.094463438 -0.05109112 0.42200002
0.095198564 -0.05109112 0.42200002
0.096161015 -0.051212192 0.42300001
0.096897885 -0.051212192 0.42300001
0.097865567 -0.05133326 0.42400002
0.098604172 -0.05133326 0.42400002
0.099577084 -0.051454328 0.42500001
0.10008139 -0.05133326 0.42400002
0.10082 -0.05133326 0.42400002
0.1015586 -0.05133326 0.42400002
0.072866119 -0.052265231 0.43800002
0.073461019 -0.052145902 0.43700001
0.074222267 -0.052145902 0.43700001
0.074468762 -0.05178792 0.43400002
0.075224787 -0.05178792 0.43400002
0.07598082 -0.05178792 0.43400002
0.076383218 -0.051549267 0.43200001
0.077135764 -0.051549267 0.43200001
0.077708013 -0.051429939 0.43100002
0.078276776 -0.051310614 0.43000001
0.078842051 -0.051191285 0.42900002
0.079218328 -0.050952632 0.42700002
0.079962157 -0.050952632 0.42700002
0.08032798 -0.050713979 0.42500001
0.081259079 -0.050833303 0.42600003
0.081808679 -0.050713979 0.42500001
0.082549028 -0.050713979 0.42500001
0.083093405 -0.05059465 0.42400002
0.083832011 -0.05059465 0.42400002
0.084371164 -0.050475325 0.42300001
0.085108027 -0.050475325 0.42300001
0.085844897 -0.050475325 0.42300001
0.086581759 -0.050475325 0.42300001
0.087112196 -0.050355997 0.42200002
0.087847322 -0.050355997 0.42200002
0.088582449 -0.050355997 0.42200002
0.089317575 -0.050355997 0.42200002
0.090052694 -0.050355997 0.42200002
0.090572685 -0.050236668 0.42100003
0.091306068 -0.050236668 0.42100003
0.092039444 -0.050236668 0.42100003
0.092993192 -0.050355997 0.42200002
0.093728319 -0.050355997 0.42200002
0.094463438 -0.050355997 0.42200002
0.095424153 -0.050475325 0.42300001
0.096161015 -0.050475325 0.42300001
0.097126961 -0.05059465 0.42400002
0.097865567 -0.05059465 0.42400002
0.098604172 -0.05059465 0.42400002
0.099577084 -0.050713979 0.42500001
0.10031743 -0.050713979 0.42500001
0.10105778 -0.050713979 0.42500001
0.10227718 -0.050952632 0.42700002
0.10302102 -0.050952632 0.42700002
0.072699763 -0.051384646 0.43700001
0.073461019 -0.051384646 0.43700001
0.074052423 -0.051267061 0.43600002
0.074640349 -0.05114948 0.43500003
0.075224787 -0.051031895 0.43400002
0.07563068 -0.050796725 0.43200001
0.076383218 -0.050796725 0.43200001
0.077135764 -0.050796725 0.43200001
0.077708013 -0.05067914 0.43100002
0.078276776 -0.050561555 0.43000001
0.078842051 -0.05044397 0.42900002
0.079403847 -0.050326385 0.42800003
0.079962157 -0.0502088 0.42700002
0.08032798 -0.049973629 0.42500001
0.081259079 -0.050091214 0.42600003
0.081808679 -0.049973629 0.42500001
0.082549028 -0.049973629 0.42500001
0.083289377 -0.049973629 0.42500001
0.083832011 -0.049856044 0.42400002
0.084570624 -0.049856044 0.42400002
0.08530923 -0.049856044 0.42400002
0.085844897 -0.049738459 0.42300001
0.086581759 -0.049738459 0.42300001
0.087318629 -0.049738459 0.42300001
0.087847322 -0.049620874 0.42200002
0.088582449 -0.049620874 0.42200002
0.089317575 -0.049620874 0.42200002
0.090052694 -0.049620874 0.42200002
0.090787821 -0.049620874 0.42200002
0.091522947 -0.049620874 0.42200002
0.092258066 -0.049620874 0.42200002
0.092993192 -0.049620874 0.42200002
0.093728319 -0.049620874 0.42200002
0.09468729 -0.049738459 0.42300001
0.095424153 -0.049738459 0.42300001
0.096388347 -0.049856044 0.42400002
0.097126961 -0.049856044 0.42400002
0.097865567 -0.049856044 0.42400002
0.098836727 -0.049973629 0.42500001
0.099811383 -0.050091214 0.42600003
0.10031743 -0.049973629 0.42500001
0.10129556 -0.050091214 0.42600003
0.10227718 -0.0502088 0.42700002
0.10302102 -0.0502088 0.42700002
0.073292911 -0.050507553 0.43600002
0.07388258 -0.050391708 0.43500003
0.074468762 -0.050275866 0.43400002
0.075224787 -0.050275866 0.43400002
0.07563068 -0.050044179 0.43200001
0.076383218 -0.050044179 0.43200001
0.077135764 -0.050044179 0.43200001
0.077708013 -0.049928337 0.43100002
0.078276776 -0.049812492 0.43000001
0.079025835 -0.049812492 0.43000001
0.079589374 -0.04969665 0.42900002
0.079962157 -0.049464963 0.42700002
0.080516987 -0.049349122 0.42600003
0.081259079 -0.049349122 0.42600003
0.081808679 -0.049233276 0.42500001
0.082549028 -0.049233276 0.42500001
0.083289377 -0.049233276 0.42500001
0.084029727 -0.049233276 0.42500001
0.084570624 -0.049117435 0.42400002
0.08530923 -0.049117435 0.42400002
0.086047836 -0.049117435 0.42400002
0.086786449 -0.049117435 0.42400002
0.087318629 -0.049001593 0.42300001
0.088055491 -0.049001593 0.42300001
0.088792361 -0.049001593 0.42300001
0.089529224 -0.049001593 0.42300001
0.090266094 -0.049001593 0.42300001
0.090787821 -0.048885748 0.42200002
0.091522947 -0.048885748 0.42200002
0.092258066 -0.048885748 0.42200002
0.093213558 -0.049001593 0.42300001
0.093950421 -0.049001593 0.42300001
0.094911136 -0.049117435 0.42400002
0.095649742 -0.049117435 0.42400002
0.096388347 -0.049117435 0.42400002
0.097126961 -0.049117435 0.42400002
0.098096378 -0.049233276 0.42500001
0.098836727 -0.049233276 0.42500001
0.10004568 -0.049464963 0.42700002
0.10149764 -0.049812492 0.43000001
0.10177113 -0.049580809 0.42800003
0.1025167 -0.049580809 0.42800003
0.073292911 -0.049748041 0.43600002
0.07388258 -0.049633939 0.43500003
0.074468762 -0.049519837 0.43400002
0.075224787 -0.049519837 0.43400002
0.075805746 -0.049405735 0.43300003
0.076383218 -0.049291637 0.43200001
0.077135764 -0.049291637 0.43200001
0.077708013 -0.049177535 0.43100002
0.078458816 -0.049177535 0.43100002
0.079025835 -0.049063433 0.43000001
0.079589374 -0.048949331 0.42900002
0.080149427 -0.048835233 0.42800003
0.080705993 -0.048721131 0.42700002
0.081449829 -0.048721131 0.42700002
0.082001172 -0.048607029 0.42600003
0.082743265 -0.048607029 0.42600003
0.083289377 -0.048492927 0.42500001
0.084029727 -0.048492927 0.42500001
0.084770083 -0.048492927 0.42500001
0.085510433 -0.048492927 0.42500001
0.086250782 -0.048492927 0.42500001
0.086786449 -0.048378825 0.42400002
0.087525055 -0.048378825 0.42400002
0.088055491 -0.048264727 0.42300001
0.088792361 -0.048264727 0.42300001
0.089529224 -0.048264727 0.42300001
0.090479486 -0.048378825 0.42400002
0.091002956 -0.048264727 0.42300001
0.091739826 -0.048264727 0.42300001
0.092476688 -0.048264727 0.42300001
0.093433917 -0.048378825 0.42400002
0.094394632 -0.048492927 0.42500001
0.095134981 -0.048492927 0.42500001
0.09587533 -0.048492927 0.42500001
0.09661568 -0.048492927 0.42500001
0.097356029 -0.048492927 0.42500001
0.098096378 -0.048492927 0.42500001
0.09906929 -0.048607029 0.42600003
0.10074858 -0.049063433 0.43000001
0.10126159 -0.048949331 0.42900002
0.10200892 -0.048949331 0.42900002
0.10299575 -0.049063433 0.43000001
0.10374482 -0.049063433 0.43000001
0.07388258 -0.048876166 0.43500003
0.074640349 -0.048876166 0.43500003
0.075224787 -0.048763808 0.43400002
0.075805746 -0.048651449 0.43300003
0.076383218 -0.048539091 0.43200001
0.077135764 -0.048539091 0.43200001
0.07788831 -0.048539091 0.43200001
0.078458816 -0.048426732 0.43100002
0.079209618 -0.048426732 0.43100002
0.079774894 -0.048314374 0.43000001
0.08033669 -0.048202015 0.42900002
0.080894999 -0.048089653 0.42800003
0.081449829 -0.047977295 0.42700002
0.082001172 -0.047864936 0.42600003
0.082743265 -0.047864936 0.42600003
0.083485357 -0.047864936 0.42600003
0.08422745 -0.047864936 0.42600003
0.084770083 -0.047752578 0.42500001
0.085510433 -0.047752578 0.42500001
0.086250782 -0.047752578 0.42500001
0.086991131 -0.047752578 0.42500001
0.087525055 -0.047640219 0.42400002
0.088263661 -0.047640219 0.42400002
0.089002267 -0.047640219 0.42400002
0.08974088 -0.047640219 0.42400002
0.090692878 -0.047752578 0.42500001
0.091218092 -0.047640219 0.42400002
0.091956705 -0.047640219 0.42400002
0.092913933 -0.047752578 0.42500001
0.093654282 -0.047752578 0.42500001
0.094394632 -0.047752578 0.42500001
0.095134981 -0.047752578 0.42500001
0.09587533 -0.047752578 0.42500001
0.09661568 -0.047752578 0.42500001
0.097356029 -0.047752578 0.42500001
0.098327197 -0.047864936 0.42600003
0.099301845 -0.047977295 0.42700002
0.10051428 -0.048202015 0.42900002
0.10126159 -0.048202015 0.42900002
0.10200892 -0.048202015 0.42900002
0.10299575 -0.048314374 0.43000001
0.10374482 -0.048314374 0.43000001
0.074640349 -0.048118398 0.43500003
0.075224787 -0.048007783 0.43400002
0.07598082 -0.048007783 0.43400002
0.076560035 -0.047897164 0.43300003
0.077135764 -0.047786549 0.43200001
0.07788831 -0.047786549 0.43200001
0.078640856 -0.047786549 0.43200001
0.079209618 -0.04767593 0.43100002
0.079774894 -0.047565311 0.43000001
0.08033669 -0.047454696 0.42900002
0.081084006 -0.047454696 0.42900002
0.081640579 -0.047344077 0.42800003
0.082193665 -0.047233462 0.42700002
0.082937494 -0.047233462 0.42700002
0.08368133 -0.047233462 0.42700002
0.084425166 -0.047233462 0.42700002
0.084969543 -0.047122844 0.42600003
0.085711628 -0.047122844 0.42600003
0.086453721 -0.047122844 0.42600003
0.086991131 -0.047012229 0.42500001
0.087731481 -0.047012229 0.42500001
0.08847183 -0.047012229 0.42500001
0.089212179 -0.047012229 0.42500001
0.089952528 -0.047012229 0.42500001
0.090692878 -0.047012229 0.42500001
0.091433227 -0.047012229 0.42500001
0.092173584 -0.047012229 0.42500001
0.092913933 -0.047012229 0.42500001
0.093654282 -0.047012229 0.42500001
0.094616733 -0.047122844 0.42600003
0.095358826 -0.047122844 0.42600003
0.096100919 -0.047122844 0.42600003
0.096843012 -0.047122844 0.42600003
0.09781418 -0.047233462 0.42700002
0.098558009 -0.047233462 0.42700002
0.099766962 -0.047454696 0.42900002
0.10051428 -0.047454696 0.42900002
0.10149764 -0.047565311 0.43000001
0.10224669 -0.047565311 0.43000001
0.10299575 -0.047565311 0.43000001
0.074811935 -0.047469504 0.43600002
0.075398117 -0.047360629 0.43500003
0.07598082 -0.047251754 0.43400002
0.076736845 -0.047251754 0.43400002
0.077314317 -0.047142878 0.43300003
0.07788831 -0.047034003 0.43200001
0.078640856 -0.047034003 0.43200001
0.079209618 -0.046925128 0.43100002
0.079774894 -0.046816252 0.43000001
0.080523953 -0.046816252 0.43000001
0.081084006 -0.046707377 0.42900002
0.081640579 -0.046598502 0.42800003
0.082386151 -0.046598502 0.42800003
0.082937494 -0.046489626 0.42700002
0.08368133 -0.046489626 0.42700002
0.084425166 -0.046489626 0.42700002
0.085168995 -0.046489626 0.42700002
0.085711628 -0.046380755 0.42600003
0.086453721 -0.046380755 0.42600003
0.087195814 -0.046380755 0.42600003
0.087937906 -0.046380755 0.42600003
0.08847183 -0.046271879 0.42500001
0.089212179 -0.046271879 0.42500001
0.089952528 -0.046271879 0.42500001
0.090692878 -0.046271879 0.42500001
0.091433227 -0.046271879 0.42500001
0.092390463 -0.046380755 0.42600003
0.093132555 -0.046380755 0.42600003
0.093874641 -0.046380755 0.42600003
0.094616733 -0.046380755 0.42600003
0.095358826 -0.046380755 0.42600003
0.096326508 -0.046489626 0.42700002
0.097070344 -0.046489626 0.42700002
0.09781418 -0.046489626 0.42700002
0.098788828 -0.046598502 0.42800003
0.099766962 -0.046707377 0.42900002
0.10051428 -0.046707377 0.42900002
0.10126159 -0.046707377 0.42900002
0.10200892 -0.046707377 0.42900002
0.074811935 -0.046709992 0.43600002
0.075571448 -0.046709992 0.43600002
0.076155886 -0.046602856 0.43500003
0.076913662 -0.046602856 0.43500003
0.077492878 -0.046495724 0.43400002
0.078068607 -0.046388593 0.43300003
0.078640856 -0.046281461 0.43200001
0.079393394 -0.046281461 0.43200001
0.079960421 -0.046174325 0.43100002
0.080523953 -0.046067193 0.43000001
0.081084006 -0.045960061 0.42900002
0.081831329 -0.045960061 0.42900002
0.082386151 -0.045852926 0.42800003
0.083131731 -0.045852926 0.42800003
0.08368133 -0.045745794 0.42700002
0.084425166 -0.045745794 0.42700002
0.085168995 -0.045745794 0.42700002
0.085912831 -0.045745794 0.42700002
0.086656667 -0.045745794 0.42700002
0.087195814 -0.045638662 0.42600003
0.087937906 -0.045638662 0.42600003
0.088679999 -0.045638662 0.42600003
0.089422092 -0.045638662 0.42600003
0.090164185 -0.045638662 0.42600003
0.090906277 -0.045638662 0.42600003
0.09164837 -0.045638662 0.42600003
0.092390463 -0.045638662 0.42600003
0.093132555 -0.045638662 0.42600003
0.093874641 -0.045638662 0.42600003
0.094616733 -0.045638662 0.42600003
0.095582671 -0.045745794 0.42700002
0.096326508 -0.045745794 0.42700002
0.097297676 -0.045852926 0.42800003
0.098043248 -0.045852926 0.42800003
0.099019639 -0.045960061 0.42900002
0.099766962 -0.045960061 0.42900002
0.10051428 -0.045960061 0.42900002
0.10126159 -0.045960061 0.42900002
0.074811935 -0.04595048 0.43600002
0.075571448 -0.04595048 0.43600002
0.076155886 -0.045845088 0.43500003
0.076913662 -0.045845088 0.43500003
0.077492878 -0.045739695 0.43400002
0.078068607 -0.045634307 0.43300003
0.078640856 -0.045528915 0.43200001
0.079393394 -0.045528915 0.43200001
0.079960421 -0.045423523 0.43100002
0.080523953 -0.045318134 0.43000001
0.081084006 -0.045212742 0.42900002
0.081831329 -0.045212742 0.42900002
0.082386151 -0.04510735 0.42800003
0.083131731 -0.04510735 0.42800003
0.083877303 -0.04510735 0.42800003
0.084622882 -0.04510735 0.42800003
0.085168995 -0.045001961 0.42700002
0.085912831 -0.045001961 0.42700002
0.086656667 -0.045001961 0.42700002
0.087400503 -0.045001961 0.42700002
0.088144332 -0.045001961 0.42700002
0.088888168 -0.045001961 0.42700002
0.089632004 -0.045001961 0.42700002
0.090375833 -0.045001961 0.42700002
0.090906277 -0.044896569 0.42600003
0.09164837 -0.044896569 0.42600003
0.092607342 -0.045001961 0.42700002
0.09335117 -0.045001961 0.42700002
0.094095007 -0.045001961 0.42700002
0.094838843 -0.045001961 0.42700002
0.095582671 -0.045001961 0.42700002
0.096552096 -0.04510735 0.42800003
0.097297676 -0.04510735 0.42800003
0.098272324 -0.045212742 0.42900002
0.099250458 -0.045318134 0.43000001
0.099999517 -0.045318134 0.43000001
0.10074858 -0.045318134 0.43000001
0.10149764 -0.045318134 0.43000001
0.074811935 -0.045190968 0.43600002
0.075571448 -0.045190968 0.43600002
0.07633096 -0.045190968 0.43600002
0.076913662 -0.045087319 0.43500003
0.077492878 -0.04498367 0.43400002
0.078248903 -0.04498367 0.43400002
0.078822888 -0.044880021 0.43300003
0.079393394 -0.044776373 0.43200001
0.079960421 -0.04467272 0.43100002
0.080523953 -0.044569071 0.43000001
0.081273012 -0.044569071 0.43000001
0.082022078 -0.044569071 0.43000001
0.082578644 -0.044465423 0.42900002
0.08332596 -0.044465423 0.42900002
0.083877303 -0.044361774 0.42800003
0.084622882 -0.044361774 0.42800003
0.085368454 -0.044361774 0.42800003
0.086114034 -0.044361774 0.42800003
0.086859606 -0.044361774 0.42800003
0.087400503 -0.044258125 0.42700002
0.088144332 -0.044258125 0.42700002
0.088888168 -0.044258125 0.42700002
0.089632004 -0.044258125 0.42700002
0.090375833 -0.044258125 0.42700002
0.091119669 -0.044258125 0.42700002
0.091863506 -0.044258125 0.42700002
0.092607342 -0.044258125 0.42700002
0.09335117 -0.044258125 0.42700002
0.094095007 -0.044258125 0.42700002
0.094838843 -0.044258125 0.42700002
0.095806524 -0.044361774 0.42800003
0.096552096 -0.044361774 0.42800003
0.097297676 -0.044361774 0.42800003
0.098272324 -0.044465423 0.42900002
0.099250458 -0.044569071 0.43000001
0.099999517 -0.044569071 0.43000001
0.10074858 -0.044569071 0.43000001
0.10149764 -0.044569071 0.43000001
0.10224669 -0.044569071 0.43000001
0.10299575 -0.044569071 0.43000001
0.074392118 -0.04463527 0.43800002
0.074983522 -0.044533361 0.43700001
0.075571448 -0.044431455 0.43600002
0.07633096 -0.044431455 0.43600002
0.077090472 -0.044431455 0.43600002
0.077671431 -0.044329546 0.43500003
0.078248903 -0.044227641 0.43400002
0.079004928 -0.044227641 0.43400002
0.079577178 -0.044125732 0.43300003
0.08014594 -0.044023827 0.43200001
0.080711223 -0.043921921 0.43100002
0.081273012 -0.043820012 0.43000001
0.082022078 -0.043820012 0.43000001
0.082771137 -0.043820012 0.43000001
0.08332596 -0.043718107 0.42900002
0.084073283 -0.043718107 0.42900002
0.084820598 -0.043718107 0.42900002
0.085368454 -0.043616198 0.42800003
0.086114034 -0.043616198 0.42800003
0.086859606 -0.043616198 0.42800003
0.087605186 -0.043616198 0.42800003
0.088350758 -0.043616198 0.42800003
0.089096338 -0.043616198 0.42800003
0.089841917 -0.043616198 0.42800003
0.090375833 -0.043514293 0.42700002
0.091119669 -0.043514293 0.42700002
0.091863506 -0.043514293 0.42700002
0.092607342 -0.043514293 0.42700002
0.09335117 -0.043514293 0.42700002
0.094095007 -0.043514293 0.42700002
0.095060945 -0.043616198 0.42800003
0.095806524 -0.043616198 0.42800003
0.096552096 -0.043616198 0.42800003
0.097297676 -0.043616198 0.42800003
0.098272324 -0.043718107 0.42900002
0.09948127 -0.043921921 0.43100002
0.10023207 -0.043921921 0.43100002
0.10074858 -0.043820012 0.43000001
0.10149764 -0.043820012 0.43000001
0.10224669 -0.043820012 0.43000001
0.074392118 -0.043872274 0.43800002
0.074983522 -0.043772109 0.43700001
0.075744778 -0.043772109 0.43700001
0.07633096 -0.043671943 0.43600002
0.077090472 -0.043671943 0.43600002
0.077671431 -0.043571778 0.43500003
0.0784292 -0.043571778 0.43500003
0.079004928 -0.043471612 0.43400002
0.079760961 -0.043471612 0.43400002
0.080331467 -0.043371446 0.43300003
0.080711223 -0.043171119 0.43100002
0.081273012 -0.043070953 0.43000001
0.082022078 -0.043070953 0.43000001
0.082771137 -0.043070953 0.43000001
0.083520196 -0.043070953 0.43000001
0.084073283 -0.042970788 0.42900002
0.084820598 -0.042970788 0.42900002
0.085567914 -0.042970788 0.42900002
0.086315237 -0.042970788 0.42900002
0.086859606 -0.042870622 0.42800003
0.087605186 -0.042870622 0.42800003
0.088350758 -0.042870622 0.42800003
0.089096338 -0.042870622 0.42800003
0.089841917 -0.042870622 0.42800003
0.090587489 -0.042870622 0.42800003
0.091333069 -0.042870622 0.42800003
0.091863506 -0.042770457 0.42700002
0.092607342 -0.042770457 0.42700002
0.093569793 -0.042870622 0.42800003
0.094315372 -0.042870622 0.42800003
0.095060945 -0.042870622 0.42800003
0.095806524 -0.042870622 0.42800003
0.096777685 -0.042970788 0.42900002
0.097525008 -0.042970788 0.42900002
0.098501399 -0.043070953 0.43000001
0.09948127 -0.043171119 0.43100002
0.10023207 -0.043171119 0.43100002
0.10173368 -0.043171119 0.43100002
0.074983522 -0.043010853 0.43700001
0.075744778 -0.043010853 0.43700001
0.07633096 -0.042912431 0.43600002
0.077090472 -0.042912431 0.43600002
0.077849984 -0.042912431 0.43600002
0.0784292 -0.042814009 0.43500003
0.079004928 -0.042715583 0.43400002
0.079760961 -0.042715583 0.43400002
0.080331467 -0.042617161 0.43300003
0.080711223 -0.042420316 0.43100002
0.081273012 -0.042321894 0.43000001
0.082022078 -0.042321894 0.43000001
0.082771137 -0.042321894 0.43000001
0.083520196 -0.042321894 0.43000001
0.084269255 -0.042321894 0.43000001
0.084820598 -0.042223468 0.42900002
0.085567914 -0.042223468 0.42900002
0.086315237 -0.042223468 0.42900002
0.087062553 -0.042223468 0.42900002
0.087809868 -0.042223468 0.42900002
0.088557191 -0.042223468 0.42900002
0.089304507 -0.042223468 0.42900002
0.090051822 -0.042223468 0.42900002
0.090799145 -0.042223468 0.42900002
0.091546461 -0.042223468 0.42900002
0.092293777 -0.042223468 0.42900002
0.092824221 -0.042125046 0.42800003
0.093569793 -0.042125046 0.42800003
0.094535731 -0.042223468 0.42900002
0.095283054 -0.042223468 0.42900002
0.096030369 -0.042223468 0.42900002
0.097003274 -0.042321894 0.43000001
0.097752333 -0.042321894 0.43000001
0.098730467 -0.042420316 0.43100002
0.099712089 -0.042518739 0.43200001
0.10046463 -0.042518739 0.43200001
0.10121717 -0.042518739 0.43200001
0.075155109 -0.04234628 0.43800002
0.075744778 -0.042249601 0.43700001
0.076506034 -0.042249601 0.43700001
0.077090472 -0.042152919 0.43600002
0.077849984 -0.042152919 0.43600002
0.0784292 -0.042056236 0.43500003
0.079186969 -0.042056236 0.43500003
0.079760961 -0.041959558 0.43400002
0.080516987 -0.041959558 0.43400002
0.081273012 -0.041959558 0.43400002
0.081462026 -0.041669514 0.43100002
0.082212821 -0.041669514 0.43100002
0.082771137 -0.041572832 0.43000001
0.083520196 -0.041572832 0.43000001
0.084269255 -0.041572832 0.43000001
0.085018314 -0.041572832 0.43000001
0.085767373 -0.041572832 0.43000001
0.086516432 -0.041572832 0.43000001
0.087062553 -0.041476153 0.42900002
0.088014558 -0.041572832 0.43000001
0.088557191 -0.041476153 0.42900002
0.089304507 -0.041476153 0.42900002
0.090051822 -0.041476153 0.42900002
0.091010794 -0.041572832 0.43000001
0.091546461 -0.041476153 0.42900002
0.092293777 -0.041476153 0.42900002
0.0930411 -0.041476153 0.42900002
0.093788415 -0.041476153 0.42900002
0.094756097 -0.041572832 0.43000001
0.095505156 -0.041572832 0.43000001
0.096254215 -0.041572832 0.43000001
0.097228862 -0.041669514 0.43100002
0.098206997 -0.041766193 0.43200001
0.098959543 -0.041766193 0.43200001
0.10017372 -0.041959558 0.43400002
0.10092974 -0.041959558 0.43400002
0.075326696 -0.041678224 0.43900001
0.075744778 -0.041488346 0.43700001
0.076506034 -0.041488346 0.43700001
0.077090472 -0.041393407 0.43600002
0.077849984 -0.041393407 0.43600002
0.0784292 -0.041298468 0.43500003
0.079186969 -0.041298468 0.43500003
0.079944737 -0.041298468 0.43500003
0.080516987 -0.041203529 0.43400002
0.081273012 -0.041203529 0.43400002
0.082029045 -0.041203529 0.43400002
0.08240357 -0.041013651 0.43200001
0.082963623 -0.040918712 0.43100002
0.083714426 -0.040918712 0.43100002
0.084269255 -0.040823773 0.43000001
0.085018314 -0.040823773 0.43000001
0.085767373 -0.040823773 0.43000001
0.086516432 -0.040823773 0.43000001
0.087265499 -0.040823773 0.43000001
0.088014558 -0.040823773 0.43000001
0.088763617 -0.040823773 0.43000001
0.089512676 -0.040823773 0.43000001
0.090261735 -0.040823773 0.43000001
0.091010794 -0.040823773 0.43000001
0.091759853 -0.040823773 0.43000001
0.092508912 -0.040823773 0.43000001
0.093257979 -0.040823773 0.43000001
0.094007038 -0.040823773 0.43000001
0.094756097 -0.040823773 0.43000001
0.095505156 -0.040823773 0.43000001
0.09647806 -0.040918712 0.43100002
0.097454451 -0.041013651 0.43200001
0.098206997 -0.041013651 0.43200001
0.098959543 -0.041013651 0.43200001
0.10017372 -0.041203529 0.43400002
0.10092974 -0.041203529 0.43400002
0.10168577 -0.041203529 0.43400002
0.075326696 -0.040913485 0.43900001
0.076091439 -0.040913485 0.43900001
0.076506034 -0.04072709 0.43700001
0.077267289 -0.04072709 0.43700001
0.077849984 -0.040633895 0.43600002
0.0784292 -0.040540699 0.43500003
0.079186969 -0.040540699 0.43500003
0.079944737 -0.040540699 0.43500003
0.080516987 -0.0404475 0.43400002
0.081273012 -0.0404475 0.43400002
0.082029045 -0.0404475 0.43400002
0.08278507 -0.0404475 0.43400002
0.083156116 -0.040261105 0.43200001
0.083714426 -0.040167909 0.43100002
0.084465228 -0.040167909 0.43100002
0.085018314 -0.040074714 0.43000001
0.085767373 -0.040074714 0.43000001
0.086516432 -0.040074714 0.43000001
0.087265499 -0.040074714 0.43000001
0.088014558 -0.040074714 0.43000001
0.088763617 -0.040074714 0.43000001
0.089512676 -0.040074714 0.43000001
0.090261735 -0.040074714 0.43000001
0.091010794 -0.040074714 0.43000001
0.091759853 -0.040074714 0.43000001
0.092508912 -0.040074714 0.43000001
0.093257979 -0.040074714 0.43000001
0.09422566 -0.040167909 0.43100002
0.094976462 -0.040167909 0.43100002
0.095727257 -0.040167909 0.43100002
0.096701913 -0.040261105 0.43200001
0.097454451 -0.040261105 0.43200001
0.098434329 -0.040354304 0.43300003
0.099417686 -0.0404475 0.43400002
0.10017372 -0.0404475 0.43400002
0.10092974 -0.0404475 0.43400002
0.10168577 -0.0404475 0.43400002
0.10433013 -0.041193075 0.44200003
0.075498283 -0.040240202 0.44000003
0.076264761 -0.040240202 0.44000003
0.076856174 -0.040148746 0.43900001
0.077267289 -0.039965838 0.43700001
0.077849984 -0.039874382 0.43600002
0.078609496 -0.039874382 0.43600002
0.079186969 -0.039782926 0.43500003
0.079944737 -0.039782926 0.43500003
0.080516987 -0.039691474 0.43400002
0.081273012 -0.039691474 0.43400002
0.082029045 -0.039691474 0.43400002
0.08278507 -0.039691474 0.43400002
0.083541103 -0.039691474 0.43400002
0.083908662 -0.039508563 0.43200001
0.084465228 -0.039417107 0.43100002
0.08521603 -0.039417107 0.43100002
0.085966833 -0.039417107 0.43100002
0.086717635 -0.039417107 0.43100002
0.087468438 -0.039417107 0.43100002
0.08821924 -0.039417107 0.43100002
0.088970043 -0.039417107 0.43100002
0.089720845 -0.039417107 0.43100002
0.090261735 -0.039325651 0.43000001
0.09122245 -0.039417107 0.43100002
0.091973253 -0.039417107 0.43100002
0.092724055 -0.039417107 0.43100002
0.093474858 -0.039417107 0.43100002
0.09422566 -0.039417107 0.43100002
0.094976462 -0.039417107 0.43100002
0.095949367 -0.039508563 0.43200001
0.096701913 -0.039508563 0.43200001
0.09768004 -0.039600018 0.43300003
0.098661661 -0.039691474 0.43400002
0.099417686 -0.039691474 0.43400002
0.10017372 -0.039691474 0.43400002
0.1011623 -0.039782926 0.43500003
0.10192007 -0.039782926 0.43500003
0.10433013 -0.040423114 0.44200003
0.1051001 -0.040423114 0.44200003
0.10563053 -0.040331658 0.44100001
0.10639875 -0.040331658 0.44100001
0.075498283 -0.039473724 0.44000003
0.076264761 -0.039473724 0.44000003
0.077031247 -0.039473724 0.44000003
0.077620909 -0.039384011 0.43900001
0.077849984 -0.03911487 0.43600002
0.078609496 -0.03911487 0.43600002
0.079369009 -0.03911487 0.43600002
0.079944737 -0.039025158 0.43500003
0.080702513 -0.039025158 0.43500003
0.081460282 -0.039025158 0.43500003
0.082029045 -0.038935445 0.43400002
0.08297582 -0.039025158 0.43500003
0.083541103 -0.038935445 0.43400002
0.084297128 -0.038935445 0.43400002
0.084857181 -0.038845733 0.43300003
0.085413747 -0.038756017 0.43200001
0.086166292 -0.038756017 0.43200001
0.086918838 -0.038756017 0.43200001
0.087468438 -0.038666304 0.43100002
0.08821924 -0.038666304 0.43100002
0.088970043 -0.038666304 0.43100002
0.089720845 -0.038666304 0.43100002
0.090471648 -0.038666304 0.43100002
0.09122245 -0.038666304 0.43100002
0.091973253 -0.038666304 0.43100002
0.092724055 -0.038666304 0.43100002
0.093474858 -0.038666304 0.43100002
0.094444275 -0.038756017 0.43200001
0.095196821 -0.038756017 0.43200001
0.095949367 -0.038756017 0.43200001
0.096925758 -0.038845733 0.43300003
0.097905628 -0.038935445 0.43400002
0.098661661 -0.038935445 0.43400002
0.099417686 -0.038935445 0.43400002
0.10040453 -0.039025158 0.43500003
0.1011623 -0.039025158 0.43500003
0.10192007 -0.039025158 0.43500003
0.10433013 -0.039653149 0.44200003
0.1051001 -0.039653149 0.44200003
0.10563053 -0.039563436 0.44100001
0.10664002 -0.039653149 0.44200003
0.10740998 -0.039653149 0.44200003
0.07566987 -0.038795214 0.44100001
0.076264761 -0.038707241 0.44000003
0.077031247 -0.038707241 0.44000003
0.077620909 -0.038619272 0.43900001
0.078207098 -0.0385313 0.43800002
0.078789793 -0.038443331 0.43700001
0.079369009 -0.038355358 0.43600002
0.080128521 -0.038355358 0.43600002
0.080702513 -0.038267389 0.43500003
0.081460282 -0.038267389 0.43500003
0.082029045 -0.038179416 0.43400002
0.08297582 -0.038267389 0.43500003
0.083541103 -0.038179416 0.43400002
0.084297128 -0.038179416 0.43400002
0.085053153 -0.038179416 0.43400002
0.08561147 -0.038091447 0.43300003
0.086166292 -0.038003474 0.43200001
0.086918838 -0.038003474 0.43200001
0.087671384 -0.038003474 0.43200001
0.088423923 -0.038003474 0.43200001
0.088970043 -0.037915502 0.43100002
0.089720845 -0.037915502 0.43100002
0.090471648 -0.037915502 0.43100002
0.09122245 -0.037915502 0.43100002
0.091973253 -0.037915502 0.43100002
0.092724055 -0.037915502 0.43100002
0.093691736 -0.038003474 0.43200001
0.094444275 -0.038003474 0.43200001
0.095196821 -0.038003474 0.43200001
0.095949367 -0.038003474 0.43200001
0.096925758 -0.038091447 0.43300003
0.097905628 -0.038179416 0.43400002
0.098661661 -0.038179416 0.43400002
0.099875838 -0.038355358 0.43600002
0.10086616 -0.038443331 0.43700001
0.10162742 -0.038443331 0.43700001
0.10309157 -0.038707241 0.44000003
0.10409409 -0.038795214 0.44100001
0.10486231 -0.038795214 0.44100001
0.10587005 -0.038883183 0.44200003
0.10664002 -0.038883183 0.44200003
0.10740998 -0.038883183 0.44200003
0.07566987 -0.038026992 0.44100001
0.076438092 -0.038026992 0.44100001
0.077206314 -0.038026992 0.44100001
0.077797726 -0.037940763 0.44000003
0.078385651 -0.037854534 0.43900001
0.078789793 -0.037682075 0.43700001
0.079369009 -0.037595846 0.43600002
0.080128521 -0.037595846 0.43600002
0.080702513 -0.037509616 0.43500003
0.081460282 -0.037509616 0.43500003
0.082218051 -0.037509616 0.43500003
0.08297582 -0.037509616 0.43500003
0.083733588 -0.037509616 0.43500003
0.084297128 -0.037423387 0.43400002
0.085053153 -0.037423387 0.43400002
0.085809186 -0.037423387 0.43400002
0.086565211 -0.037423387 0.43400002
0.087120041 -0.037337158 0.43300003
0.087671384 -0.037250929 0.43200001
0.088423923 -0.037250929 0.43200001
0.089176469 -0.037250929 0.43200001
0.089929014 -0.037250929 0.43200001
0.09068156 -0.037250929 0.43200001
0.091434099 -0.037250929 0.43200001
0.092186645 -0.037250929 0.43200001
0.092939191 -0.037250929 0.43200001
0.093691736 -0.037250929 0.43200001
0.094444275 -0.037250929 0.43200001
0.095196821 -0.037250929 0.43200001
0.096171468 -0.037337158 0.43300003
0.097149603 -0.037423387 0.43400002
0.098131225 -0.037509616 0.43500003
0.098888993 -0.037509616 0.43500003
0.099875838 -0.037595846 0.43600002
0.10063535 -0.037595846 0.43600002
0.10209253 -0.037854534 0.43900001
0.10285727 -0.037854534 0.43900001
0.10409409 -0.038026992 0.44100001
0.10486231 -0.038026992 0.44100001
0.10587005 -0.038113222 0.44200003
0.10664002 -0.038113222 0.44200003
0.10716698 -0.038026992 0.44100001
0.1079352 -0.038026992 0.44100001
0.075241342 -0.037427742 0.44300002
0.075841457 -0.037343256 0.44200003
0.076611422 -0.037343256 0.44200003
0.077206314 -0.03725877 0.44100001
0.077974536 -0.03725877 0.44100001
0.078564204 -0.037174281 0.44000003
0.07897009 -0.037005309 0.43800002
0.079551049 -0.036920823 0.43700001
0.080128521 -0.036836334 0.43600002
0.080888033 -0.036836334 0.43600002
0.081460282 -0.036751848 0.43500003
0.082218051 -0.036751848 0.43500003
0.08297582 -0.036751848 0.43500003
0.083733588 -0.036751848 0.43500003
0.084491357 -0.036751848 0.43500003
0.085053153 -0.036667362 0.43400002
0.085809186 -0.036667362 0.43400002
0.086565211 -0.036667362 0.43400002
0.087321237 -0.036667362 0.43400002
0.087874323 -0.036582872 0.43300003
0.088423923 -0.036498386 0.43200001
0.089176469 -0.036498386 0.43200001
0.089929014 -0.036498386 0.43200001
0.09068156 -0.036498386 0.43200001
0.091434099 -0.036498386 0.43200001
0.092186645 -0.036498386 0.43200001
0.092939191 -0.036498386 0.43200001
0.093908615 -0.036582872 0.43300003
0.094662897 -0.036582872 0.43300003
0.095637545 -0.036667362 0.43400002
0.096393578 -0.036667362 0.43400002
0.097373448 -0.036751848 0.43500003
0.098131225 -0.036751848 0.43500003
0.099116325 -0.036836334 0.43600002
0.10010491 -0.036920823 0.43700001
0.10109697 -0.037005309 0.43800002
0.10209253 -0.037089795 0.43900001
0.10332587 -0.03725877 0.44100001
0.10409409 -0.03725877 0.44100001
0.10486231 -0.03725877 0.44100001
0.10563053 -0.03725877 0.44100001
0.10664002 -0.037343256 0.44200003
0.075241342 -0.036656037 0.44300002
0.075841457 -0.036573291 0.44200003
0.076611422 -0.036573291 0.44200003
0.077381387 -0.036573291 0.44200003
0.077974536 -0.036490548 0.44100001
0.078564204 -0.036407802 0.44000003
0.079150386 -0.036325056 0.43900001
0.079733089 -0.036242314 0.43800002
0.080312304 -0.036159568 0.43700001
0.080888033 -0.036076821 0.43600002
0.081647545 -0.036076821 0.43600002
0.082218051 -0.035994079 0.43500003
0.08297582 -0.035994079 0.43500003
0.083733588 -0.035994079 0.43500003
0.084491357 -0.035994079 0.43500003
0.085249133 -0.035994079 0.43500003
0.085809186 -0.035911333 0.43400002
0.086565211 -0.035911333 0.43400002
0.087321237 -0.035911333 0.43400002
0.088077269 -0.035911333 0.43400002
0.088628612 -0.035828587 0.43300003
0.089382894 -0.035828587 0.43300003
0.090137184 -0.035828587 0.43300003
0.090891466 -0.035828587 0.43300003
0.091645755 -0.035828587 0.43300003
0.092400044 -0.035828587 0.43300003
0.093154326 -0.035828587 0.43300003
0.094125494 -0.035911333 0.43400002
0.09488152 -0.035911333 0.43400002
0.095637545 -0.035911333 0.43400002
0.09661568 -0.035994079 0.43500003
0.097373448 -0.035994079 0.43500003
0.098356813 -0.036076821 0.43600002
0.099116325 -0.036076821 0.43600002
0.10033398 -0.036242314 0.43800002
0.10132779 -0.036325056 0.43900001
0.10209253 -0.036325056 0.43900001
0.10332587 -0.036490548 0.44100001
0.10409409 -0.036490548 0.44100001
0.10486231 -0.036490548 0.44100001
0.10563053 -0.036490548 0.44100001
0.10639875 -0.036490548 0.44100001
0.10716698 -0.036490548 0.44100001
0.1079352 -0.036490548 0.44100001
0.10870342 -0.036490548 0.44100001
0.10947164 -0.036490548 0.44100001
0.075241342 -0.035884332 0.44300002
0.076013044 -0.035884332 0.44300002
0.076611422 -0.035803329 0.44200003
0.077381387 -0.035803329 0.44200003
0.077974536 -0.035722326 0.44100001
0.078742757 -0.035722326 0.44100001
0.079330683 -0.035641324 0.44000003
0.079915129 -0.035560321 0.43900001
0.080312304 -0.035398312 0.43700001
0.081073552 -0.035398312 0.43700001
0.081647545 -0.035317309 0.43600002
0.082407057 -0.035317309 0.43600002
0.083166569 -0.035317309 0.43600002
0.083733588 -0.035236306 0.43500003
0.084491357 -0.035236306 0.43500003
0.085249133 -0.035236306 0.43500003
0.086006902 -0.035236306 0.43500003
0.086764671 -0.035236306 0.43500003
0.087321237 -0.035155304 0.43400002
0.088077269 -0.035155304 0.43400002
0.088833295 -0.035155304 0.43400002
0.08958932 -0.035155304 0.43400002
0.090345353 -0.035155304 0.43400002
0.091101378 -0.035155304 0.43400002
0.091857411 -0.035155304 0.43400002
0.092613436 -0.035155304 0.43400002
0.093369462 -0.035155304 0.43400002
0.094125494 -0.035155304 0.43400002
0.09488152 -0.035155304 0.43400002
0.095857911 -0.035236306 0.43500003
0.09661568 -0.035236306 0.43500003
0.097597301 -0.035317309 0.43600002
0.098582402 -0.035398312 0.43700001
0.09934365 -0.035398312 0.43700001
0.10056306 -0.035560321 0.43900001
0.10332587 -0.035722326 0.44100001
0.10409409 -0.035722326 0.44100001
0.10486231 -0.035722326 0.44100001
0.10563053 -0.035722326 0.44100001
0.10639875 -0.035722326 0.44100001
0.10716698 -0.035722326 0.44100001
0.1079352 -0.035722326 0.44100001
0.10870342 -0.035722326 0.44100001
0.10947164 -0.035722326 0.44100001
0.11023986 -0.035722326 0.44100001
0.075411186 -0.035191886 0.44400004
0.076013044 -0.035112627 0.44300002
0.076611422 -0.035033364 0.44200003
0.077381387 -0.035033364 0.44200003
0.078151353 -0.035033364 0.44200003
0.078742757 -0.034954105 0.44100001
0.079330683 -0.034874842 0.44000003
0.079915129 -0.034795582 0.43900001
0.080679864 -0.034795582 0.43900001
0.081073552 -0.03463706 0.43700001
0.081834808 -0.03463706 0.43700001
0.082407057 -0.034557797 0.43600002
0.083166569 -0.034557797 0.43600002
0.083926082 -0.034557797 0.43600002
0.084685594 -0.034557797 0.43600002
0.085249133 -0.034478538 0.43500003
0.086006902 -0.034478538 0.43500003
0.086764671 -0.034478538 0.43500003
0.08752244 -0.034478538 0.43500003
0.088280208 -0.034478538 0.43500003
0.089037977 -0.034478538 0.43500003
0.08958932 -0.034399275 0.43400002
0.090345353 -0.034399275 0.43400002
0.091101378 -0.034399275 0.43400002
0.091857411 -0.034399275 0.43400002
0.092826828 -0.034478538 0.43500003
0.093584597 -0.034478538 0.43500003
0.094342373 -0.034478538 0.43500003
0.095100142 -0.034478538 0.43500003
0.096078277 -0.034557797 0.43600002
0.096837789 -0.034557797 0.43600002
0.097821146 -0.03463706 0.43700001
0.098582402 -0.03463706 0.43700001
0.10255764 -0.034954105 0.44100001
0.10409409 -0.034954105 0.44100001
0.10486231 -0.034954105 0.44100001
0.10563053 -0.034954105 0.44100001
0.10639875 -0.034954105 0.44100001
0.10716698 -0.034954105 0.44100001
0.1079352 -0.034954105 0.44100001
0.10870342 -0.034954105 0.44100001
0.10947164 -0.034954105 0.44100001
0.074805841 -0.034495957 0.44500002
0.075411186 -0.034418438 0.44400004
0.07618463 -0.034418438 0.44400004
0.076784752 -0.034340918 0.44300002
0.077381387 -0.034263398 0.44200003
0.078151353 -0.034263398 0.44200003
0.078742757 -0.034185883 0.44100001
0.079330683 -0.034108363 0.44000003
0.080097169 -0.034108363 0.44000003
0.080679864 -0.034030844 0.43900001
0.081444599 -0.034030844 0.43900001
0.081834808 -0.033875804 0.43700001
0.082596064 -0.033875804 0.43700001
0.083357319 -0.033875804 0.43700001
0.083926082 -0.033798285 0.43600002
0.084685594 -0.033798285 0.43600002
0.085445106 -0.033798285 0.43600002
0.086204618 -0.033798285 0.43600002
0.08696413 -0.033798285 0.43600002
0.08752244 -0.033720765 0.43500003
0.088280208 -0.033720765 0.43500003
0.089037977 -0.033720765 0.43500003
0.089795753 -0.033720765 0.43500003
0.090553522 -0.033720765 0.43500003
0.091311291 -0.033720765 0.43500003
0.09206906 -0.033720765 0.43500003
0.092826828 -0.033720765 0.43500003
0.093584597 -0.033720765 0.43500003
0.094342373 -0.033720765 0.43500003
0.095100142 -0.033720765 0.43500003
0.096078277 -0.033798285 0.43600002
0.097059891 -0.033875804 0.43700001
0.098044991 -0.033953324 0.43800002
0.098807991 -0.033953324 0.43800002
0.074805841 -0.033720765 0.44500002
0.075411186 -0.033644989 0.44400004
0.07618463 -0.033644989 0.44400004
0.076784752 -0.033569213 0.44300002
0.077556461 -0.033569213 0.44300002
0.078151353 -0.033493437 0.44200003
0.078742757 -0.033417661 0.44100001
0.079510979 -0.033417661 0.44100001
0.080097169 -0.033341881 0.44000003
0.080863647 -0.033341881 0.44000003
0.081444599 -0.033266105 0.43900001
0.082022078 -0.033190329 0.43800002
0.082596064 -0.033114552 0.43700001
0.083357319 -0.033114552 0.43700001
0.084118575 -0.033114552 0.43700001
0.084879823 -0.033114552 0.43700001
0.085445106 -0.033038773 0.43600002
0.086204618 -0.033038773 0.43600002
0.08696413 -0.033038773 0.43600002
0.087723643 -0.033038773 0.43600002
0.088483155 -0.033038773 0.43600002
0.089242667 -0.033038773 0.43600002
0.089795753 -0.032962997 0.43500003
0.090553522 -0.032962997 0.43500003
0.091311291 -0.032962997 0.43500003
0.092280716 -0.033038773 0.43600002
0.093040228 -0.033038773 0.43600002
0.09379974 -0.033038773 0.43600002
0.094559252 -0.033038773 0.43600002
0.095537379 -0.033114552 0.43700001
0.096298635 -0.033114552 0.43700001
0.097281992 -0.033190329 0.43800002
0.098268837 -0.033266105 0.43900001
0.099033579 -0.033266105 0.43900001
0.074805841 -0.032945577 0.44500002
0.075581029 -0.032945577 0.44500002
0.07618463 -0.032871541 0.44400004
0.076958083 -0.032871541 0.44400004
0.077556461 -0.032797508 0.44300002
0.078151353 -0.032723472 0.44200003
0.078921318 -0.032723472 0.44200003
0.079510979 -0.032649439 0.44100001
0.080279201 -0.032649439 0.44100001
0.080863647 -0.032575402 0.44000003
0.081630126 -0.032575402 0.44000003
0.082209341 -0.032501366 0.43900001
0.08278507 -0.032427333 0.43800002
0.083548069 -0.032427333 0.43800002
0.084118575 -0.032353297 0.43700001
0.084879823 -0.032353297 0.43700001
0.085641079 -0.032353297 0.43700001
0.086402334 -0.032353297 0.43700001
0.08696413 -0.03227926 0.43600002
0.087723643 -0.03227926 0.43600002
0.088483155 -0.03227926 0.43600002
0.089242667 -0.03227926 0.43600002
0.090002179 -0.03227926 0.43600002
0.090761691 -0.03227926 0.43600002
0.091521204 -0.03227926 0.43600002
0.092280716 -0.03227926 0.43600002
0.09325362 -0.032353297 0.43700001
0.094014876 -0.032353297 0.43700001
0.094776131 -0.032353297 0.43700001
0.095756002 -0.032427333 0.43800002
0.096519001 -0.032427333 0.43800002
0.097504102 -0.032501366 0.43900001
0.098268837 -0.032501366 0.43900001
0.073294654 -0.032531854 0.45000002
0.074696094 -0.032459561 0.44900003
0.074805841 -0.032170389 0.44500002
0.075581029 -0.032170389 0.44500002
0.076356217 -0.032170389 0.44500002
0.076958083 -0.032098092 0.44400004
0.077731527 -0.032098092 0.44400004
0.078328162 -0.032025799 0.44300002
0.078921318 -0.031953506 0.44200003
0.079691276 -0.031953506 0.44200003
0.080279201 -0.031881213 0.44100001
0.080863647 -0.03180892 0.44000003
0.081630126 -0.03180892 0.44000003
0.082209341 -0.031736627 0.43900001
0.082974076 -0.031736627 0.43900001
0.083738819 -0.031736627 0.43900001
0.084311061 -0.031664334 0.43800002
0.084879823 -0.031592041 0.43700001
0.085641079 -0.031592041 0.43700001
0.086402334 -0.031592041 0.43700001
0.08716359 -0.031592041 0.43700001
0.087924846 -0.031592041 0.43700001
0.088686094 -0.031592041 0.43700001
0.089447349 -0.031592041 0.43700001
0.090208605 -0.031592041 0.43700001
0.090969861 -0.031592041 0.43700001
0.091731116 -0.031592041 0.43700001
0.092492364 -0.031592041 0.43700001
0.09325362 -0.031592041 0.43700001
0.094014876 -0.031592041 0.43700001
0.09499301 -0.031664334 0.43800002
0.095974624 -0.031736627 0.43900001
0.096739367 -0.031736627 0.43900001
0.097504102 -0.031736627 0.43900001
0.098268837 -0.031736627 0.43900001
0.099033579 -0.031736627 0.43900001
0.073294654 -0.031747952 0.45000002
0.074078552 -0.031747952 0.45000002
0.074696094 -0.031677403 0.44900003
0.075478248 -0.031677403 0.44900003
0.075750872 -0.031465746 0.44600001
0.076356217 -0.031395197 0.44500002
0.077131413 -0.031395197 0.44500002
0.077731527 -0.031324647 0.44400004
0.07850498 -0.031324647 0.44400004
0.078921318 -0.031183545 0.44200003
0.079691276 -0.031183545 0.44200003
0.080279201 -0.031112993 0.44100001
0.081047423 -0.031112993 0.44100001
0.081630126 -0.031042442 0.44000003
0.082396604 -0.031042442 0.44000003
0.082974076 -0.03097189 0.43900001
0.083738819 -0.03097189 0.43900001
0.084503554 -0.03097189 0.43900001
0.08507406 -0.030901341 0.43800002
0.085837059 -0.030901341 0.43800002
0.086402334 -0.030830789 0.43700001
0.08716359 -0.030830789 0.43700001
0.087924846 -0.030830789 0.43700001
0.088686094 -0.030830789 0.43700001
0.089447349 -0.030830789 0.43700001
0.090208605 -0.030830789 0.43700001
0.090969861 -0.030830789 0.43700001
0.091731116 -0.030830789 0.43700001
0.092492364 -0.030830789 0.43700001
0.093467019 -0.030901341 0.43800002
0.094445147 -0.03097189 0.43900001
0.095209889 -0.03097189 0.43900001
0.095974624 -0.03097189 0.43900001
0.096959725 -0.031042442 0.44000003
0.097504102 -0.03097189 0.43900001
0.098492689 -0.031042442 0.44000003
0.099259168 -0.031042442 0.44000003
0.073131777 -0.030895242 0.44900003
0.073913939 -0.030895242 0.44900003
0.074696094 -0.030895242 0.44900003
0.075478248 -0.030895242 0.44900003
0.075750872 -0.030688817 0.44600001
0.076356217 -0.030620007 0.44500002
0.077131413 -0.030620007 0.44500002
0.077731527 -0.030551197 0.44400004
0.07850498 -0.030551197 0.44400004
0.079099871 -0.030482389 0.44300002
0.079691276 -0.030413579 0.44200003
0.080461241 -0.030413579 0.44200003
0.081047423 -0.030344771 0.44100001
0.081815645 -0.030344771 0.44100001
0.082396604 -0.030275961 0.44000003
0.083163083 -0.030275961 0.44000003
0.083929569 -0.030275961 0.44000003
0.084503554 -0.030207153 0.43900001
0.085268289 -0.030207153 0.43900001
0.086033031 -0.030207153 0.43900001
0.086797766 -0.030207153 0.43900001
0.087363049 -0.030138344 0.43800002
0.088126041 -0.030138344 0.43800002
0.08888904 -0.030138344 0.43800002
0.089652039 -0.030138344 0.43800002
0.090415031 -0.030138344 0.43800002
0.091386199 -0.030207153 0.43900001
0.092150934 -0.030207153 0.43900001
0.092915669 -0.030207153 0.43900001
0.093680412 -0.030207153 0.43900001
0.094445147 -0.030207153 0.43900001
0.095209889 -0.030207153 0.43900001
0.096193247 -0.030275961 0.44000003
0.096959725 -0.030275961 0.44000003
0.097726204 -0.030275961 0.44000003
0.098492689 -0.030275961 0.44000003
