# .PCD v0.7 - Point Cloud Data file format
VERSION 0.7
FIELDS x y z
SIZE 4 4 4
TYPE F F F
COUNT 1 1 1
WIDTH 1349
HEIGHT 1
VIEWPOINT 0 0 0 1 0 0 0
POINTS 1349
DATA ascii
0.10535007 -0.066301398 0.46700001
0.10639092 -0.066443369 0.46800002
0.10720617 -0.066443369 0.46800002
0.10825224 -0.06658534 0.46900001
0.1093018 -0.066727318 0.47000003
0.11012053 -0.066727318 0.47000003
0.11093928 -0.066727318 0.47000003
0.1119958 -0.066869289 0.47100002
0.11281628 -0.066869289 0.47100002
0.11387803 -0.067011259 0.47200003
0.11470026 -0.067011259 0.47200003
0.11552248 -0.067011259 0.47200003
0.11634471 -0.067011259 0.47200003
0.089508317 -0.065207422 0.46500003
0.090124115 -0.065067187 0.46400002
0.090932406 -0.065067187 0.46400002
0.091542974 -0.06492696 0.46300003
0.092548981 -0.065067187 0.46400002
0.093357272 -0.065067187 0.46400002
0.094368502 -0.065207422 0.46500003
0.09517853 -0.065207422 0.46500003
0.095988564 -0.065207422 0.46500003
0.096798591 -0.065207422 0.46500003
0.097818531 -0.065347649 0.46600002
0.098630302 -0.065347649 0.46600002
0.09944208 -0.065347649 0.46600002
0.10025385 -0.065347649 0.46600002
0.10106562 -0.065347649 0.46600002
0.10187739 -0.065347649 0.46600002
0.10268916 -0.065347649 0.46600002
0.10372304 -0.065487884 0.46700001
0.10453656 -0.065487884 0.46700001
0.10535007 -0.065487884 0.46700001
0.10616358 -0.065487884 0.46700001
0.10720617 -0.065628111 0.46800002
0.10802142 -0.065628111 0.46800002
0.10906924 -0.065768346 0.46900001
0.11012053 -0.065908574 0.47000003
0.11093928 -0.065908574 0.47000003
0.11175802 -0.065908574 0.47000003
0.11281628 -0.066048808 0.47100002
0.11363676 -0.066048808 0.47100002
0.11445725 -0.066048808 0.47100002
0.11527773 -0.066048808 0.47100002
0.11634471 -0.066189036 0.47200003
0.11716693 -0.066189036 0.47200003
0.084906824 -0.06398192 0.46200001
0.085711628 -0.06398192 0.46200001
0.086516432 -0.06398192 0.46200001
0.087321237 -0.06398192 0.46200001
0.088316791 -0.064120412 0.46300003
0.089123338 -0.064120412 0.46300003
0.089929886 -0.064120412 0.46300003
0.090736434 -0.064120412 0.46300003
0.091542974 -0.064120412 0.46300003
0.092548981 -0.064258903 0.46400002
0.093357272 -0.064258903 0.46400002
0.094165556 -0.064258903 0.46400002
0.094973847 -0.064258903 0.46400002
0.095988564 -0.064397387 0.46500003
0.096798591 -0.064397387 0.46500003
0.097608618 -0.064397387 0.46500003
0.098418653 -0.064397387 0.46500003
0.09922868 -0.064397387 0.46500003
0.10025385 -0.064535879 0.46600002
0.10106562 -0.064535879 0.46600002
0.10187739 -0.064535879 0.46600002
0.10268916 -0.064535879 0.46600002
0.10350094 -0.064535879 0.46600002
0.10431271 -0.064535879 0.46600002
0.10535007 -0.06467437 0.46700001
0.10616358 -0.06467437 0.46700001
0.10720617 -0.064812854 0.46800002
0.10802142 -0.064812854 0.46800002
0.10906924 -0.064951345 0.46900001
0.10988624 -0.064951345 0.46900001
0.11093928 -0.065089837 0.47000003
0.11175802 -0.065089837 0.47000003
0.11257676 -0.065089837 0.47000003
0.11363676 -0.065228321 0.47100002
0.11445725 -0.065228321 0.47100002
0.11527773 -0.065228321 0.47100002
0.11634471 -0.065366812 0.47200003
0.11716693 -0.065366812 0.47200003
0.11798915 -0.065366812 0.47200003
0.084906824 -0.063177116 0.46200001
0.085526109 -0.063040368 0.46100003
0.086516432 -0.063177116 0.46200001
0.08713223 -0.063040368 0.46100003
0.087935291 -0.063040368 0.46100003
0.08873836 -0.063040368 0.46100003
0.08973565 -0.063177116 0.46200001
0.090344481 -0.063040368 0.46100003
0.091147542 -0.063040368 0.46100003
0.092150062 -0.063177116 0.46200001
0.09315607 -0.063313864 0.46300003
0.093962617 -0.063313864 0.46300003
0.094769157 -0.063313864 0.46300003
0.095575705 -0.063313864 0.46300003
0.096590422 -0.063450612 0.46400002
0.097398713 -0.063450612 0.46400002
0.098418653 -0.06358736 0.46500003
0.09922868 -0.06358736 0.46500003
0.10003871 -0.06358736 0.46500003
0.10084874 -0.06358736 0.46500003
0.10165877 -0.06358736 0.46500003
0.10268916 -0.063724108 0.46600002
0.10350094 -0.063724108 0.46600002
0.10431271 -0.063724108 0.46600002
0.10512448 -0.063724108 0.46600002
0.10616358 -0.063860856 0.46700001
0.1069771 -0.063860856 0.46700001
0.10802142 -0.063997597 0.46800002
0.10883668 -0.063997597 0.46800002
0.10988624 -0.064134344 0.46900001
0.11093928 -0.064271092 0.47000003
0.11175802 -0.064271092 0.47000003
0.11257676 -0.064271092 0.47000003
0.1133955 -0.064271092 0.47000003
0.11421423 -0.064271092 0.47000003
0.11527773 -0.06440784 0.47100002
0.11634471 -0.064544588 0.47200003
0.11716693 -0.064544588 0.47200003
0.11798915 -0.064544588 0.47200003
0.084723048 -0.062237307 0.46100003
0.085526109 -0.062237307 0.46100003
0.08632917 -0.062237307 0.46100003
0.08713223 -0.062237307 0.46100003
0.087935291 -0.062237307 0.46100003
0.08873836 -0.062237307 0.46100003
0.08954142 -0.062237307 0.46100003
0.090344481 -0.062237307 0.46100003
0.091147542 -0.062237307 0.46100003
0.091950603 -0.062237307 0.46100003
0.092753664 -0.062237307 0.46100003
0.093556732 -0.062237307 0.46100003
0.094564475 -0.062372316 0.46200001
0.095369279 -0.062372316 0.46200001
0.096382253 -0.062507316 0.46300003
0.097188801 -0.062507316 0.46300003
0.098206997 -0.062642321 0.46400002
0.098801889 -0.062507316 0.46300003
0.099823572 -0.062642321 0.46400002
0.10084874 -0.062777326 0.46500003
0.10165877 -0.062777326 0.46500003
0.1024688 -0.062777326 0.46500003
0.10327883 -0.062777326 0.46500003
0.10431271 -0.062912337 0.46600002
0.10512448 -0.062912337 0.46600002
0.10593625 -0.062912337 0.46600002
0.1069771 -0.063047342 0.46700001
0.10779061 -0.063047342 0.46700001
0.10883668 -0.063182347 0.46800002
0.10988624 -0.063317351 0.46900001
0.11093928 -0.063452356 0.47000003
0.11175802 -0.063452356 0.47000003
0.11257676 -0.063452356 0.47000003
0.1133955 -0.063452356 0.47000003
0.11421423 -0.063452356 0.47000003
0.11527773 -0.06358736 0.47100002
0.11609821 -0.06358736 0.47100002
0.11716693 -0.063722365 0.47200003
0.11773917 -0.06358736 0.47100002
0.11855966 -0.06358736 0.47100002
0.084539264 -0.061300986 0.46000001
0.085340582 -0.061300986 0.46000001
0.08632917 -0.061434247 0.46100003
0.08713223 -0.061434247 0.46100003
0.087935291 -0.061434247 0.46100003
0.08873836 -0.061434247 0.46100003
0.08954142 -0.061434247 0.46100003
0.090148509 -0.061300986 0.46000001
0.090949826 -0.061300986 0.46000001
0.091751143 -0.061300986 0.46000001
0.092753664 -0.061434247 0.46100003
0.093556732 -0.061434247 0.46100003
0.094359793 -0.061434247 0.46100003
0.095162854 -0.061434247 0.46100003
0.095965914 -0.061434247 0.46100003
0.096978888 -0.061567511 0.46200001
0.097995348 -0.061700772 0.46300003
0.098801889 -0.061700772 0.46300003
0.099608436 -0.061700772 0.46300003
0.10063186 -0.061834037 0.46400002
0.10144015 -0.061834037 0.46400002
0.1024688 -0.061967298 0.46500003
0.10327883 -0.061967298 0.46500003
0.10408886 -0.061967298 0.46500003
0.10512448 -0.062100563 0.46600002
0.10593625 -0.062100563 0.46600002
0.10674802 -0.062100563 0.46600002
0.10779061 -0.062233824 0.46700001
0.10883668 -0.062367089 0.46800002
0.10965194 -0.062367089 0.46800002
0.11070324 -0.06250035 0.46900001
0.11175802 -0.062633611 0.47000003
0.11257676 -0.062633611 0.47000003
0.1133955 -0.062633611 0.47000003
0.11421423 -0.062633611 0.47000003
0.11527773 -0.06276688 0.47100002
0.11609821 -0.06276688 0.47100002
0.11716693 -0.062900141 0.47200003
0.11773917 -0.06276688 0.47100002
0.082395732 -0.0601051 0.45700002
0.083191827 -0.0601051 0.45700002
0.084171705 -0.060236622 0.45800003
0.085155062 -0.060368143 0.45900002
0.086141907 -0.060499664 0.46000001
0.086943224 -0.060499664 0.46000001
0.087744549 -0.060499664 0.46000001
0.088545866 -0.060499664 0.46000001
0.089347184 -0.060499664 0.46000001
0.090148509 -0.060499664 0.46000001
0.090949826 -0.060499664 0.46000001
0.091751143 -0.060499664 0.46000001
0.092552468 -0.060499664 0.46000001
0.093353786 -0.060499664 0.46000001
0.094155103 -0.060499664 0.46000001
0.094956428 -0.060499664 0.46000001
0.095965914 -0.060631186 0.46100003
0.096768975 -0.060631186 0.46100003
0.097783692 -0.060762707 0.46200001
0.098801889 -0.060894229 0.46300003
0.099608436 -0.060894229 0.46300003
0.10041498 -0.060894229 0.46300003
0.10122153 -0.060894229 0.46300003
0.10224844 -0.061025746 0.46400002
0.10327883 -0.061157268 0.46500003
0.10408886 -0.061157268 0.46500003
0.10489889 -0.061157268 0.46500003
0.10593625 -0.061288789 0.46600002
0.10674802 -0.061288789 0.46600002
0.10779061 -0.06142031 0.46700001
0.10883668 -0.061551832 0.46800002
0.10965194 -0.061551832 0.46800002
0.11070324 -0.061683353 0.46900001
0.11175802 -0.061814874 0.47000003
0.11257676 -0.061814874 0.47000003
0.1133955 -0.061814874 0.47000003
0.11421423 -0.061814874 0.47000003
0.11503298 -0.061814874 0.47000003
0.11609821 -0.061946396 0.47100002
0.11716693 -0.062077917 0.47200003
0.11773917 -0.061946396 0.47100002
0.079832383 -0.059179228 0.45600003
0.080626734 -0.059179228 0.45600003
0.081599638 -0.059309006 0.45700002
0.082395732 -0.059309006 0.45700002
0.083191827 -0.059309006 0.45700002
0.083987921 -0.059309006 0.45700002
0.084784016 -0.059309006 0.45700002
0.085767373 -0.059438787 0.45800003
0.086943224 -0.059698343 0.46000001
0.087744549 -0.059698343 0.46000001
0.088353373 -0.059568565 0.45900002
0.089152955 -0.059568565 0.45900002
0.089952528 -0.059568565 0.45900002
0.09075211 -0.059568565 0.45900002
0.091551684 -0.059568565 0.45900002
0.092552468 -0.059698343 0.46000001
0.093353786 -0.059698343 0.46000001
0.094155103 -0.059698343 0.46000001
0.094956428 -0.059698343 0.46000001
0.095757745 -0.059698343 0.46000001
0.096768975 -0.059828121 0.46100003
0.097572036 -0.059828121 0.46100003
0.098588496 -0.059957903 0.46200001
0.099393301 -0.059957903 0.46200001
0.10041498 -0.060087681 0.46300003
0.10122153 -0.060087681 0.46300003
0.10202807 -0.060087681 0.46300003
0.10305673 -0.060217459 0.46400002
0.10408886 -0.06034724 0.46500003
0.10489889 -0.06034724 0.46500003
0.10593625 -0.060477018 0.46600002
0.10674802 -0.060477018 0.46600002
0.10779061 -0.060606796 0.46700001
0.10860413 -0.060606796 0.46700001
0.10965194 -0.060736574 0.46800002
0.1104672 -0.060736574 0.46800002
0.11152023 -0.060866356 0.46900001
0.11257676 -0.060996134 0.47000003
0.1133955 -0.060996134 0.47000003
0.11421423 -0.060996134 0.47000003
0.11503298 -0.060996134 0.47000003
0.11585172 -0.060996134 0.47000003
0.11691869 -0.061125912 0.47100002
0.11773917 -0.061125912 0.47100002
0.11855966 -0.061125912 0.47100002
0.079657309 -0.058256838 0.45500001
0.080449916 -0.058256838 0.45500001
0.081421085 -0.058384877 0.45600003
0.082215436 -0.058384877 0.45600003
0.083009787 -0.058384877 0.45600003
0.083804138 -0.058384877 0.45600003
0.084598497 -0.058384877 0.45600003
0.085580111 -0.058512911 0.45700002
0.086376205 -0.058512911 0.45700002
0.087363049 -0.058640949 0.45800003
0.087968394 -0.058512911 0.45700002
0.088958718 -0.058640949 0.45800003
0.089756556 -0.058640949 0.45800003
0.090554394 -0.058640949 0.45800003
0.091352224 -0.058640949 0.45800003
0.092351265 -0.058768988 0.45900002
0.093150839 -0.058768988 0.45900002
0.093950421 -0.058768988 0.45900002
0.094956428 -0.058897022 0.46000001
0.095757745 -0.058897022 0.46000001
0.096559063 -0.058897022 0.46000001
0.097572036 -0.05902506 0.46100003
0.098375104 -0.05902506 0.46100003
0.099178165 -0.05902506 0.46100003
0.1001981 -0.059153099 0.46200001
0.10122153 -0.059281133 0.46300003
0.10202807 -0.059281133 0.46300003
0.10283462 -0.059281133 0.46300003
0.10386501 -0.059409171 0.46400002
0.10489889 -0.05953721 0.46500003
0.10593625 -0.059665244 0.46600002
0.10674802 -0.059665244 0.46600002
0.1075598 -0.059665244 0.46600002
0.10860413 -0.059793282 0.46700001
0.10965194 -0.059921321 0.46800002
0.11070324 -0.060049355 0.46900001
0.11175802 -0.060177393 0.47000003
0.11257676 -0.060177393 0.47000003
0.1133955 -0.060177393 0.47000003
0.11421423 -0.060177393 0.47000003
0.11503298 -0.060177393 0.47000003
0.11609821 -0.060305431 0.47100002
0.11716693 -0.060433466 0.47200003
0.11798915 -0.060433466 0.47200003
0.11881138 -0.060433466 0.47200003
0.078691371 -0.057337932 0.45400003
0.079482242 -0.057337932 0.45400003
0.080273107 -0.057337932 0.45400003
0.081063978 -0.057337932 0.45400003
0.081854843 -0.057337932 0.45400003
0.082645714 -0.057337932 0.45400003
0.083436579 -0.057337932 0.45400003
0.08422745 -0.057337932 0.45400003
0.085205577 -0.057464227 0.45500001
0.085998192 -0.057464227 0.45500001
0.0867908 -0.057464227 0.45500001
0.087775901 -0.057590522 0.45600003
0.088570252 -0.057590522 0.45600003
0.089560583 -0.05771682 0.45700002
0.090356678 -0.05771682 0.45700002
0.091352224 -0.057843115 0.45800003
0.092150062 -0.057843115 0.45800003
0.0929479 -0.057843115 0.45800003
0.093950421 -0.05796941 0.45900002
0.094750002 -0.05796941 0.45900002
0.095549576 -0.05796941 0.45900002
0.096559063 -0.058095705 0.46000001
0.097360387 -0.058095705 0.46000001
0.098375104 -0.058222 0.46100003
0.099178165 -0.058222 0.46100003
0.1001981 -0.058348294 0.46200001
0.10100291 -0.058348294 0.46200001
0.10202807 -0.058474589 0.46300003
0.10283462 -0.058474589 0.46300003
0.10386501 -0.058600884 0.46400002
0.10489889 -0.058727179 0.46500003
0.10570892 -0.058727179 0.46500003
0.10674802 -0.058853474 0.46600002
0.1075598 -0.058853474 0.46600002
0.10860413 -0.058979768 0.46700001
0.10965194 -0.059106063 0.46800002
0.11070324 -0.059232358 0.46900001
0.11175802 -0.059358653 0.47000003
0.11257676 -0.059358653 0.47000003
0.1133955 -0.059358653 0.47000003
0.11421423 -0.059358653 0.47000003
0.11527773 -0.059484947 0.47100002
0.11609821 -0.059484947 0.47100002
0.11716693 -0.059611242 0.47200003
0.11798915 -0.059611242 0.47200003
0.11906309 -0.059737537 0.47300002
0.12039398 -0.05999013 0.47500002
0.074572414 -0.056422513 0.45300001
0.076150663 -0.056422513 0.45300001
0.076769948 -0.056297958 0.45200002
0.077557325 -0.056297958 0.45200002
0.07851804 -0.056422513 0.45300001
0.079307169 -0.056422513 0.45300001
0.080273107 -0.056547064 0.45400003
0.081063978 -0.056547064 0.45400003
0.081854843 -0.056547064 0.45400003
0.082645714 -0.056547064 0.45400003
0.083436579 -0.056547064 0.45400003
0.08422745 -0.056547064 0.45400003
0.085205577 -0.056671619 0.45500001
0.085998192 -0.056671619 0.45500001
0.0867908 -0.056671619 0.45500001
0.087583408 -0.056671619 0.45500001
0.088376023 -0.056671619 0.45500001
0.089364603 -0.056796171 0.45600003
0.090158954 -0.056796171 0.45600003
0.091152772 -0.056920726 0.45700002
0.091948859 -0.056920726 0.45700002
0.0929479 -0.057045277 0.45800003
0.093745738 -0.057045277 0.45800003
0.094543569 -0.057045277 0.45800003
0.095549576 -0.057169832 0.45900002
0.096559063 -0.057294384 0.46000001
0.097360387 -0.057294384 0.46000001
0.098161705 -0.057294384 0.46000001
0.099178165 -0.057418935 0.46100003
0.099981226 -0.057418935 0.46100003
0.10100291 -0.05754349 0.46200001
0.10202807 -0.057668041 0.46300003
0.10283462 -0.057668041 0.46300003
0.10364117 -0.057668041 0.46300003
0.1046733 -0.057792597 0.46400002
0.10570892 -0.057917148 0.46500003
0.10651895 -0.057917148 0.46500003
0.1075598 -0.058041703 0.46600002
0.10860413 -0.058166254 0.46700001
0.10941764 -0.058166254 0.46700001
0.1104672 -0.058290809 0.46800002
0.11152023 -0.058415361 0.46900001
0.11257676 -0.058539912 0.47000003
0.1133955 -0.058539912 0.47000003
0.11421423 -0.058539912 0.47000003
0.11527773 -0.058664467 0.47100002
0.11634471 -0.058789019 0.47200003
0.11716693 -0.058789019 0.47200003
0.11798915 -0.058789019 0.47200003
0.11931481 -0.059038125 0.47400004
0.12014052 -0.059038125 0.47400004
0.12122143 -0.05916268 0.47500002
0.074407794 -0.055510577 0.45200002
0.075195178 -0.055510577 0.45200002
0.075982563 -0.055510577 0.45200002
0.076769948 -0.055510577 0.45200002
0.077385738 -0.055387765 0.45100003
0.07834471 -0.055510577 0.45200002
0.079132095 -0.055510577 0.45200002
0.07991948 -0.055510577 0.45200002
0.080885418 -0.055633385 0.45300001
0.081674546 -0.055633385 0.45300001
0.082463674 -0.055633385 0.45300001
0.083252795 -0.055633385 0.45300001
0.08422745 -0.055756196 0.45400003
0.085018314 -0.055756196 0.45400003
0.085998192 -0.055879008 0.45500001
0.0867908 -0.055879008 0.45500001
0.087583408 -0.055879008 0.45500001
0.088376023 -0.055879008 0.45500001
0.089168631 -0.055879008 0.45500001
0.089961238 -0.055879008 0.45500001
0.090953313 -0.05600182 0.45600003
0.091948859 -0.056124631 0.45700002
0.092744954 -0.056124631 0.45700002
0.093745738 -0.056247443 0.45800003
0.094543569 -0.056247443 0.45800003
0.095341407 -0.056247443 0.45800003
0.096349157 -0.056370251 0.45900002
0.097148731 -0.056370251 0.45900002
0.098161705 -0.056493063 0.46000001
0.09896303 -0.056493063 0.46000001
0.099981226 -0.056615874 0.46100003
0.10100291 -0.056738686 0.46200001
0.10202807 -0.056861497 0.46300003
0.10283462 -0.056861497 0.46300003
0.10364117 -0.056861497 0.46300003
0.1046733 -0.056984309 0.46400002
0.10570892 -0.057107117 0.46500003
0.10651895 -0.057107117 0.46500003
0.1075598 -0.057229929 0.46600002
0.10837157 -0.057229929 0.46600002
0.10941764 -0.05735274 0.46700001
0.1104672 -0.057475552 0.46800002
0.11152023 -0.057598364 0.46900001
0.11257676 -0.057721175 0.47000003
0.1133955 -0.057721175 0.47000003
0.11421423 -0.057721175 0.47000003
0.11527773 -0.057843983 0.47100002
0.11634471 -0.057966795 0.47200003
0.11741516 -0.058089606 0.47300002
0.11823913 -0.058089606 0.47300002
0.11931481 -0.058212418 0.47400004
0.12039398 -0.05833523 0.47500002
0.12147664 -0.058458041 0.47600001
0.074243173 -0.054602124 0.45100003
0.075028814 -0.054602124 0.45100003
0.075814456 -0.054602124 0.45100003
0.076600097 -0.054602124 0.45100003
0.077385738 -0.054602124 0.45100003
0.078171387 -0.054602124 0.45100003
0.078957029 -0.054602124 0.45100003
0.07991948 -0.054723192 0.45200002
0.080706865 -0.054723192 0.45200002
0.081494249 -0.054723192 0.45200002
0.082281634 -0.054723192 0.45200002
0.083069019 -0.054723192 0.45200002
0.083856404 -0.054723192 0.45200002
0.085018314 -0.054965328 0.45400003
0.085809186 -0.054965328 0.45400003
0.08660005 -0.054965328 0.45400003
0.087583408 -0.055086397 0.45500001
0.088376023 -0.055086397 0.45500001
0.089168631 -0.055086397 0.45500001
0.089961238 -0.055086397 0.45500001
0.090753853 -0.055086397 0.45500001
0.091747664 -0.055207469 0.45600003
0.092744954 -0.055328537 0.45700002
0.093541048 -0.055328537 0.45700002
0.094543569 -0.055449605 0.45800003
0.095341407 -0.055449605 0.45800003
0.096349157 -0.055570673 0.45900002
0.097148731 -0.055570673 0.45900002
0.098161705 -0.055691745 0.46000001
0.09896303 -0.055691745 0.46000001
0.099764347 -0.055691745 0.46000001
0.10078429 -0.055812813 0.46100003
0.10180771 -0.055933882 0.46200001
0.10283462 -0.05605495 0.46300003
0.10364117 -0.05605495 0.46300003
0.1046733 -0.056176018 0.46400002
0.10570892 -0.05629709 0.46500003
0.10651895 -0.05629709 0.46500003
0.1075598 -0.056418158 0.46600002
0.10837157 -0.056418158 0.46600002
0.10941764 -0.056539226 0.46700001
0.1104672 -0.056660295 0.46800002
0.11152023 -0.056781363 0.46900001
0.11257676 -0.056902435 0.47000003
0.1133955 -0.056902435 0.47000003
0.11445725 -0.057023503 0.47100002
0.11527773 -0.057023503 0.47100002
0.11634471 -0.057144571 0.47200003
0.11741516 -0.057265639 0.47300002
0.11848911 -0.057386711 0.47400004
0.11956653 -0.057507779 0.47500002
0.12064745 -0.057628848 0.47600001
0.12147664 -0.057628848 0.47600001
0.069375157 -0.053697154 0.45000002
0.071726851 -0.053697154 0.45000002
0.072510757 -0.053697154 0.45000002
0.073457532 -0.053816479 0.45100003
0.074243173 -0.053816479 0.45100003
0.075028814 -0.053816479 0.45100003
0.075646356 -0.053697154 0.45000002
0.076430254 -0.053697154 0.45000002
0.077385738 -0.053816479 0.45100003
0.078171387 -0.053816479 0.45100003
0.078957029 -0.053816479 0.45100003
0.07974267 -0.053816479 0.45100003
0.080528311 -0.053816479 0.45100003
0.081313953 -0.053816479 0.45100003
0.082099594 -0.053816479 0.45100003
0.083069019 -0.053935807 0.45200002
0.083856404 -0.053935807 0.45200002
0.084831052 -0.054055136 0.45300001
0.08562018 -0.054055136 0.45300001
0.086409301 -0.054055136 0.45300001
0.087390922 -0.05417446 0.45400003
0.088181786 -0.05417446 0.45400003
0.088972658 -0.05417446 0.45400003
0.089961238 -0.054293789 0.45500001
0.090753853 -0.054293789 0.45500001
0.091546461 -0.054293789 0.45500001
0.092542015 -0.054413114 0.45600003
0.093541048 -0.054532442 0.45700002
0.094337143 -0.054532442 0.45700002
0.095341407 -0.054651771 0.45800003
0.096139245 -0.054651771 0.45800003
0.096937083 -0.054651771 0.45800003
0.098161705 -0.054890424 0.46000001
0.09896303 -0.054890424 0.46000001
0.099764347 -0.054890424 0.46000001
0.10078429 -0.055009749 0.46100003
0.10180771 -0.055129077 0.46200001
0.10261252 -0.055129077 0.46200001
0.10364117 -0.055248406 0.46300003
0.1046733 -0.055367731 0.46400002
0.10570892 -0.055487059 0.46500003
0.10651895 -0.055487059 0.46500003
0.10732898 -0.055487059 0.46500003
0.10837157 -0.055606384 0.46600002
0.10941764 -0.055725712 0.46700001
0.1104672 -0.055845041 0.46800002
0.11128245 -0.055845041 0.46800002
0.11233723 -0.055964366 0.46900001
0.1133955 -0.056083694 0.47000003
0.11445725 -0.056203019 0.47100002
0.11552248 -0.056322347 0.47200003
0.11659119 -0.056441676 0.47300002
0.1176634 -0.056561001 0.47400004
0.11873908 -0.056680329 0.47500002
0.11981825 -0.056799654 0.47600001
0.12064745 -0.056799654 0.47600001
0.12173184 -0.056918982 0.47700003
0.069375157 -0.052913252 0.45000002
0.070003144 -0.052795667 0.44900003
0.070785306 -0.052795667 0.44900003
0.071726851 -0.052913252 0.45000002
0.072510757 -0.052913252 0.45000002
0.073294654 -0.052913252 0.45000002
0.074078552 -0.052913252 0.45000002
0.074862458 -0.052913252 0.45000002
0.075646356 -0.052913252 0.45000002
0.076430254 -0.052913252 0.45000002
0.077214152 -0.052913252 0.45000002
0.077998057 -0.052913252 0.45000002
0.078781955 -0.052913252 0.45000002
0.079565853 -0.052913252 0.45000002
0.080528311 -0.053030837 0.45100003
0.081313953 -0.053030837 0.45100003
0.082099594 -0.053030837 0.45100003
0.082885236 -0.053030837 0.45100003
0.083670877 -0.053030837 0.45100003
0.084643789 -0.053148422 0.45200002
0.085431166 -0.053148422 0.45200002
0.086218551 -0.053148422 0.45200002
0.087198429 -0.053266007 0.45300001
0.088181786 -0.053383593 0.45400003
0.088972658 -0.053383593 0.45400003
0.089763522 -0.053383593 0.45400003
0.090753853 -0.053501178 0.45500001
0.091546461 -0.053501178 0.45500001
0.092339069 -0.053501178 0.45500001
0.093336366 -0.053618763 0.45600003
0.094337143 -0.053736348 0.45700002
0.095133238 -0.053736348 0.45700002
0.096139245 -0.053853933 0.45800003
0.096937083 -0.053853933 0.45800003
0.097948313 -0.053971518 0.45900002
0.09896303 -0.054089103 0.46000001
0.099764347 -0.054089103 0.46000001
0.10056566 -0.054089103 0.46000001
0.10180771 -0.054324273 0.46200001
0.10261252 -0.054324273 0.46200001
0.10364117 -0.054441858 0.46300003
0.1046733 -0.054559443 0.46400002
0.10548159 -0.054559443 0.46400002
0.10651895 -0.054677028 0.46500003
0.10732898 -0.054677028 0.46500003
0.10837157 -0.054794613 0.46600002
0.10941764 -0.054912198 0.46700001
0.1104672 -0.055029783 0.46800002
0.11152023 -0.055147368 0.46900001
0.11257676 -0.055264954 0.47000003
0.1133955 -0.055264954 0.47000003
0.11445725 -0.055382539 0.47100002
0.11552248 -0.055500124 0.47200003
0.11659119 -0.055617709 0.47300002
0.1176634 -0.055735294 0.47400004
0.11898906 -0.055970464 0.47600001
0.11981825 -0.055970464 0.47600001
0.12090091 -0.056088049 0.47700003
0.12198704 -0.056205634 0.47800002
0.068438828 -0.052013509 0.44900003
0.06922099 -0.052013509 0.44900003
0.070003144 -0.052013509 0.44900003
0.070785306 -0.052013509 0.44900003
0.071567461 -0.052013509 0.44900003
0.072349623 -0.052013509 0.44900003
0.073131777 -0.052013509 0.44900003
0.073913939 -0.052013509 0.44900003
0.074696094 -0.052013509 0.44900003
0.075478248 -0.052013509 0.44900003
0.07626041 -0.052013509 0.44900003
0.077042565 -0.052013509 0.44900003
0.077824727 -0.052013509 0.44900003
0.078606881 -0.052013509 0.44900003
0.079389043 -0.052013509 0.44900003
0.080171198 -0.052013509 0.44900003
0.081133656 -0.052129354 0.45000002
0.082099594 -0.052245196 0.45100003
0.082885236 -0.052245196 0.45100003
0.083670877 -0.052245196 0.45100003
0.084643789 -0.052361038 0.45200002
0.085431166 -0.052361038 0.45200002
0.086218551 -0.052361038 0.45200002
0.087005936 -0.052361038 0.45200002
0.087987557 -0.052476883 0.45300001
0.088776678 -0.052476883 0.45300001
0.089763522 -0.052592725 0.45400003
0.090554394 -0.052592725 0.45400003
0.091546461 -0.05270857 0.45500001
0.092339069 -0.05270857 0.45500001
0.093131684 -0.05270857 0.45500001
0.094130717 -0.052824412 0.45600003
0.095133238 -0.052940253 0.45700002
0.095929332 -0.052940253 0.45700002
0.096937083 -0.053056099 0.45800003
0.097734913 -0.053056099 0.45800003
0.098747887 -0.05317194 0.45900002
0.099764347 -0.053287782 0.46000001
0.10056566 -0.053287782 0.46000001
0.10158735 -0.053403627 0.46100003
0.10261252 -0.053519469 0.46200001
0.10364117 -0.053635314 0.46300003
0.10444771 -0.053635314 0.46300003
0.10548159 -0.053751156 0.46400002
0.10651895 -0.053866997 0.46500003
0.10732898 -0.053866997 0.46500003
0.10837157 -0.053982843 0.46600002
0.10918334 -0.053982843 0.46600002
0.1104672 -0.054214526 0.46800002
0.11152023 -0.054330371 0.46900001
0.11257676 -0.054446213 0.47000003
0.11363676 -0.054562055 0.47100002
0.11470026 -0.0546779 0.47200003
0.11576723 -0.054793742 0.47300002
0.11683769 -0.054909587 0.47400004
0.11791163 -0.055025429 0.47500002
0.11898906 -0.05514127 0.47600001
0.11981825 -0.05514127 0.47600001
0.12090091 -0.055257116 0.47700003
0.12198704 -0.055372957 0.47800002
0.06560111 -0.051459555 0.45100003
0.066092357 -0.051231351 0.44900003
0.066874512 -0.051231351 0.44900003
0.067656673 -0.051231351 0.44900003
0.068286404 -0.051117253 0.44800001
0.06922099 -0.051231351 0.44900003
0.069847234 -0.051117253 0.44800001
0.070627652 -0.051117253 0.44800001
0.071248673 -0.051003151 0.44700003
0.072188482 -0.051117253 0.44800001
0.0729689 -0.051117253 0.44800001
0.073749319 -0.051117253 0.44800001
0.07452973 -0.051117253 0.44800001
0.075310148 -0.051117253 0.44800001
0.076090567 -0.051117253 0.44800001
0.076870978 -0.051117253 0.44800001
0.077651396 -0.051117253 0.44800001
0.078431815 -0.051117253 0.44800001
0.079212226 -0.051117253 0.44800001
0.079992644 -0.051117253 0.44800001
0.080773063 -0.051117253 0.44800001
0.081735514 -0.051231351 0.44900003
0.082517676 -0.051231351 0.44900003
0.083485357 -0.051345453 0.45000002
0.084456518 -0.051459555 0.45100003
0.08524216 -0.051459555 0.45100003
0.086027801 -0.051459555 0.45100003
0.087005936 -0.051573656 0.45200002
0.08779332 -0.051573656 0.45200002
0.088776678 -0.051687755 0.45300001
0.089565806 -0.051687755 0.45300001
0.090554394 -0.051801857 0.45400003
0.091345258 -0.051801857 0.45400003
0.092339069 -0.051915959 0.45500001
0.093131684 -0.051915959 0.45500001
0.093924291 -0.051915959 0.45500001
0.094925068 -0.05203006 0.45600003
0.095929332 -0.052144159 0.45700002
0.096937083 -0.052258261 0.45800003
0.097734913 -0.052258261 0.45800003
0.098747887 -0.052372362 0.45900002
0.099547468 -0.052372362 0.45900002
0.10056566 -0.052486464 0.46000001
0.10158735 -0.052600563 0.46100003
0.10261252 -0.052714664 0.46200001
0.10364117 -0.052828766 0.46300003
0.10444771 -0.052828766 0.46300003
0.10548159 -0.052942868 0.46400002
0.10651895 -0.053056967 0.46500003
0.10732898 -0.053056967 0.46500003
0.10837157 -0.053171068 0.46600002
0.10941764 -0.05328517 0.46700001
0.1104672 -0.053399272 0.46800002
0.11175802 -0.053627472 0.47000003
0.11257676 -0.053627472 0.47000003
0.11387803 -0.053855676 0.47200003
0.11470026 -0.053855676 0.47200003
0.11576723 -0.053969778 0.47300002
0.11683769 -0.054083876 0.47400004
0.11791163 -0.054197978 0.47500002
0.11898906 -0.05431208 0.47600001
0.12006997 -0.054426182 0.47700003
0.12115437 -0.05454028 0.47800002
0.12198704 -0.05454028 0.47800002
0.064815469 -0.050673913 0.45100003
0.06560111 -0.050673913 0.45100003
0.066092357 -0.050449193 0.44900003
0.066725574 -0.050336834 0.44800001
0.067505985 -0.050336834 0.44800001
0.068286404 -0.050336834 0.44800001
0.069066823 -0.050336834 0.44800001
0.069535419 -0.050112117 0.44600001
0.070312351 -0.050112117 0.44600001
0.071089283 -0.050112117 0.44600001
0.071866214 -0.050112117 0.44600001
0.072643146 -0.050112117 0.44600001
0.073584698 -0.050224476 0.44700003
0.074363373 -0.050224476 0.44700003
0.075142048 -0.050224476 0.44700003
0.076090567 -0.050336834 0.44800001
0.076870978 -0.050336834 0.44800001
0.077651396 -0.050336834 0.44800001
0.078431815 -0.050336834 0.44800001
0.079212226 -0.050336834 0.44800001
0.079992644 -0.050336834 0.44800001
0.080773063 -0.050336834 0.44800001
0.081553474 -0.050336834 0.44800001
0.082333893 -0.050336834 0.44800001
0.083299831 -0.050449193 0.44900003
0.084269255 -0.050561555 0.45000002
0.08524216 -0.050673913 0.45100003
0.086027801 -0.050673913 0.45100003
0.087005936 -0.050786272 0.45200002
0.08779332 -0.050786272 0.45200002
0.088580705 -0.050786272 0.45200002
0.089565806 -0.05089863 0.45300001
0.090354934 -0.05089863 0.45300001
0.091345258 -0.051010989 0.45400003
0.09213613 -0.051010989 0.45400003
0.093131684 -0.051123347 0.45500001
0.093924291 -0.051123347 0.45500001
0.094925068 -0.051235706 0.45600003
0.095929332 -0.051348068 0.45700002
0.096725427 -0.051348068 0.45700002
0.097734913 -0.051460426 0.45800003
0.098747887 -0.051572785 0.45900002
0.099547468 -0.051572785 0.45900002
0.10056566 -0.051685143 0.46000001
0.10158735 -0.051797502 0.46100003
0.10239041 -0.051797502 0.46100003
0.10341732 -0.05190986 0.46200001
0.10444771 -0.052022219 0.46300003
0.10525426 -0.052022219 0.46300003
0.10651895 -0.052246939 0.46500003
0.10732898 -0.052246939 0.46500003
0.10860413 -0.052471656 0.46700001
0.10941764 -0.052471656 0.46700001
0.1104672 -0.052584015 0.46800002
0.11175802 -0.052808732 0.47000003
0.11257676 -0.052808732 0.47000003
0.11387803 -0.053033452 0.47200003
0.11470026 -0.053033452 0.47200003
0.11576723 -0.053145811 0.47300002
0.11683769 -0.053258169 0.47400004
0.11791163 -0.053370528 0.47500002
0.11898906 -0.053482886 0.47600001
0.12006997 -0.053595245 0.47700003
0.12115437 -0.053707607 0.47800002
0.12198704 -0.053707607 0.47800002
0.064029828 -0.049888272 0.45100003
0.064671755 -0.049777653 0.45000002
0.065310195 -0.049667034 0.44900003
0.066092357 -0.049667034 0.44900003
0.066725574 -0.049556419 0.44800001
0.067505985 -0.049556419 0.44800001
0.06813398 -0.0494458 0.44700003
0.068758488 -0.049335185 0.44600001
0.069535419 -0.049335185 0.44600001
0.070312351 -0.049335185 0.44600001
0.070929892 -0.049224567 0.44500002
0.071705081 -0.049224567 0.44500002
0.072480269 -0.049224567 0.44500002
0.073420078 -0.049335185 0.44600001
0.074197009 -0.049335185 0.44600001
0.074973941 -0.049335185 0.44600001
0.075750872 -0.049335185 0.44600001
0.076527804 -0.049335185 0.44600001
0.077478066 -0.0494458 0.44700003
0.078256741 -0.0494458 0.44700003
0.079035416 -0.0494458 0.44700003
0.079814091 -0.0494458 0.44700003
0.080592766 -0.0494458 0.44700003
0.081553474 -0.049556419 0.44800001
0.082333893 -0.049556419 0.44800001
0.083114311 -0.049556419 0.44800001
0.084081993 -0.049667034 0.44900003
0.084864147 -0.049667034 0.44900003
0.085837059 -0.049777653 0.45000002
0.08681345 -0.049888272 0.45100003
0.087599091 -0.049888272 0.45100003
0.088580705 -0.049998887 0.45200002
0.08936809 -0.049998887 0.45200002
0.090155475 -0.049998887 0.45200002
0.091345258 -0.050220121 0.45400003
0.09213613 -0.050220121 0.45400003
0.093131684 -0.050330739 0.45500001
0.093924291 -0.050330739 0.45500001
0.094925068 -0.050441355 0.45600003
0.095929332 -0.050551973 0.45700002
0.096725427 -0.050551973 0.45700002
0.097521521 -0.050551973 0.45700002
0.098532751 -0.050662588 0.45800003
0.099330589 -0.050662588 0.45800003
0.10056566 -0.050883822 0.46000001
0.10136699 -0.050883822 0.46000001
0.10239041 -0.050994441 0.46100003
0.10364117 -0.051215675 0.46300003
0.10444771 -0.051215675 0.46300003
0.10548159 -0.05132629 0.46400002
0.10651895 -0.051436909 0.46500003
0.1075598 -0.051547524 0.46600002
0.10860413 -0.051658142 0.46700001
0.10965194 -0.051768757 0.46800002
0.11070324 -0.051879376 0.46900001
0.11175802 -0.051989995 0.47000003
0.11281628 -0.05210061 0.47100002
0.11387803 -0.052211229 0.47200003
0.11470026 -0.052211229 0.47200003
0.11576723 -0.052321844 0.47300002
0.11683769 -0.052432463 0.47400004
0.11791163 -0.052543078 0.47500002
0.11898906 -0.052653696 0.47600001
0.11981825 -0.052653696 0.47600001
0.056370251 -0.049973629 0.45900002
0.058512911 -0.049755879 0.45700002
0.059309006 -0.049755879 0.45700002
0.0601051 -0.049755879 0.45700002
0.061946396 -0.049320377 0.45300001
0.062597029 -0.049211502 0.45200002
0.063384414 -0.049211502 0.45200002
0.064029828 -0.049102627 0.45100003
0.064671755 -0.048993751 0.45000002
0.065310195 -0.04888488 0.44900003
0.065945156 -0.048776004 0.44800001
0.066725574 -0.048776004 0.44800001
0.067355305 -0.048667129 0.44700003
0.06813398 -0.048667129 0.44700003
0.068758488 -0.048558254 0.44600001
0.069535419 -0.048558254 0.44600001
0.070154697 -0.048449378 0.44500002
0.070929892 -0.048449378 0.44500002
0.071705081 -0.048449378 0.44500002
0.072480269 -0.048449378 0.44500002
0.073255457 -0.048449378 0.44500002
0.074030653 -0.048449378 0.44500002
0.074805841 -0.048449378 0.44500002
0.075581029 -0.048449378 0.44500002
0.076527804 -0.048558254 0.44600001
0.077304736 -0.048558254 0.44600001
0.078081667 -0.048558254 0.44600001
0.078858607 -0.048558254 0.44600001
0.079635538 -0.048558254 0.44600001
0.080592766 -0.048667129 0.44700003
0.081371441 -0.048667129 0.44700003
0.082150109 -0.048667129 0.44700003
0.083114311 -0.048776004 0.44800001
0.083894722 -0.048776004 0.44800001
0.084864147 -0.04888488 0.44900003
0.085646309 -0.04888488 0.44900003
0.086620957 -0.048993751 0.45000002
0.087599091 -0.049102627 0.45100003
0.088384733 -0.049102627 0.45100003
0.08936809 -0.049211502 0.45200002
0.090155475 -0.049211502 0.45200002
0.091144055 -0.049320377 0.45300001
0.09213613 -0.049429253 0.45400003
0.092926994 -0.049429253 0.45400003
0.093924291 -0.049538128 0.45500001
0.094925068 -0.049647003 0.45600003
0.095929332 -0.049755879 0.45700002
0.096725427 -0.049755879 0.45700002
0.097521521 -0.049755879 0.45700002
0.098532751 -0.049864754 0.45800003
0.099330589 -0.049864754 0.45800003
0.10056566 -0.050082505 0.46000001
0.10136699 -0.050082505 0.46000001
0.10239041 -0.050191376 0.46100003
0.10364117 -0.050409127 0.46300003
0.10444771 -0.050409127 0.46300003
0.10548159 -0.050518002 0.46400002
0.10651895 -0.050626878 0.46500003
0.1075598 -0.050735753 0.46600002
0.10860413 -0.050844628 0.46700001
0.10965194 -0.050953504 0.46800002
0.11070324 -0.051062379 0.46900001
0.11175802 -0.051171254 0.47000003
0.11305581 -0.051389005 0.47200003
0.11387803 -0.051389005 0.47200003
0.11494327 -0.051497877 0.47300002
0.11601198 -0.051606752 0.47400004
0.11683769 -0.051606752 0.47400004
0.1176634 -0.051606752 0.47400004
0.053971518 -0.049174052 0.45900002
0.054771096 -0.049174052 0.45900002
0.055570673 -0.049174052 0.45900002
0.056370251 -0.049174052 0.45900002
0.057045277 -0.049066916 0.45800003
0.057843115 -0.049066916 0.45800003
0.058512911 -0.048959784 0.45700002
0.059309006 -0.048959784 0.45700002
0.0601051 -0.048959784 0.45700002
0.060901195 -0.048959784 0.45700002
0.061292272 -0.048638385 0.45400003
0.061946396 -0.048531253 0.45300001
0.062597029 -0.048424117 0.45200002
0.063384414 -0.048424117 0.45200002
0.064029828 -0.048316985 0.45100003
0.064815469 -0.048316985 0.45100003
0.065455653 -0.048209853 0.45000002
0.066092357 -0.048102722 0.44900003
0.066725574 -0.047995586 0.44800001
0.067355305 -0.047888454 0.44700003
0.067981556 -0.047781322 0.44600001
0.068758488 -0.047781322 0.44600001
0.069379508 -0.047674187 0.44500002
0.070154697 -0.047674187 0.44500002
0.070929892 -0.047674187 0.44500002
0.071705081 -0.047674187 0.44500002
0.072480269 -0.047674187 0.44500002
0.073090844 -0.047567055 0.44400004
0.073864289 -0.047567055 0.44400004
0.074637733 -0.047567055 0.44400004
0.075581029 -0.047674187 0.44500002
0.076356217 -0.047674187 0.44500002
0.077131413 -0.047674187 0.44500002
0.078081667 -0.047781322 0.44600001
0.078858607 -0.047781322 0.44600001
0.079635538 -0.047781322 0.44600001
0.08041247 -0.047781322 0.44600001
0.081371441 -0.047888454 0.44700003
0.082150109 -0.047888454 0.44700003
0.083114311 -0.047995586 0.44800001
0.083894722 -0.047995586 0.44800001
0.084675141 -0.047995586 0.44800001
0.085646309 -0.048102722 0.44900003
0.086620957 -0.048209853 0.45000002
0.087599091 -0.048316985 0.45100003
0.088384733 -0.048316985 0.45100003
0.08936809 -0.048424117 0.45200002
0.090155475 -0.048424117 0.45200002
0.091144055 -0.048531253 0.45300001
0.09213613 -0.048638385 0.45400003
0.092926994 -0.048638385 0.45400003
0.093924291 -0.048745517 0.45500001
0.094716899 -0.048745517 0.45500001
0.095719419 -0.048852652 0.45600003
0.096725427 -0.048959784 0.45700002
0.097521521 -0.048959784 0.45700002
0.098532751 -0.049066916 0.45800003
0.099330589 -0.049066916 0.45800003
0.10034704 -0.049174052 0.45900002
0.10136699 -0.049281184 0.46000001
0.10239041 -0.049388316 0.46100003
0.10364117 -0.049602583 0.46300003
0.10444771 -0.049602583 0.46300003
0.10548159 -0.049709715 0.46400002
0.10651895 -0.049816847 0.46500003
0.1075598 -0.049923982 0.46600002
0.10883668 -0.050138246 0.46800002
0.10965194 -0.050138246 0.46800002
0.11070324 -0.050245382 0.46900001
0.1119958 -0.050459646 0.47100002
0.11305581 -0.050566778 0.47200003
0.1141193 -0.050673913 0.47300002
0.11518627 -0.050781045 0.47400004
0.11601198 -0.050781045 0.47400004
0.11683769 -0.050781045 0.47400004
0.054651771 -0.048269082 0.45800003
0.055449605 -0.048269082 0.45800003
0.056247443 -0.048269082 0.45800003
0.057045277 -0.048269082 0.45800003
0.057843115 -0.048269082 0.45800003
0.058512911 -0.04816369 0.45700002
0.059309006 -0.04816369 0.45700002
0.059973579 -0.048058297 0.45600003
0.060634669 -0.047952909 0.45500001
0.061292272 -0.047847517 0.45400003
0.06208314 -0.047847517 0.45400003
0.06273552 -0.047742125 0.45300001
0.063384414 -0.047636736 0.45200002
0.064029828 -0.047531344 0.45100003
0.064815469 -0.047531344 0.45100003
0.065455653 -0.047425952 0.45000002
0.066092357 -0.047320563 0.44900003
0.066725574 -0.047215171 0.44800001
0.067355305 -0.047109779 0.44700003
0.067981556 -0.047004391 0.44600001
0.068758488 -0.047004391 0.44600001
0.069379508 -0.046898998 0.44500002
0.070154697 -0.046898998 0.44500002
0.070929892 -0.046898998 0.44500002
0.071705081 -0.046898998 0.44500002
0.072317392 -0.046793606 0.44400004
0.073090844 -0.046793606 0.44400004
0.073864289 -0.046793606 0.44400004
0.074637733 -0.046793606 0.44400004
0.075411186 -0.046793606 0.44400004
0.076356217 -0.046898998 0.44500002
0.077131413 -0.046898998 0.44500002
0.077906601 -0.046898998 0.44500002
0.078858607 -0.047004391 0.44600001
0.079635538 -0.047004391 0.44600001
0.08041247 -0.047004391 0.44600001
0.081189401 -0.047004391 0.44600001
0.082150109 -0.047109779 0.44700003
0.082928784 -0.047109779 0.44700003
0.083894722 -0.047215171 0.44800001
0.084675141 -0.047215171 0.44800001
0.085646309 -0.047320563 0.44900003
0.086428463 -0.047320563 0.44900003
0.087404855 -0.047425952 0.45000002
0.088384733 -0.047531344 0.45100003
0.089170374 -0.047531344 0.45100003
0.090155475 -0.047636736 0.45200002
0.091144055 -0.047742125 0.45300001
0.09213613 -0.047847517 0.45400003
0.092926994 -0.047847517 0.45400003
0.093924291 -0.047952909 0.45500001
0.094716899 -0.047952909 0.45500001
0.095719419 -0.048058297 0.45600003
0.096725427 -0.04816369 0.45700002
0.097521521 -0.04816369 0.45700002
0.098532751 -0.048269082 0.45800003
0.099330589 -0.048269082 0.45800003
0.10034704 -0.04837447 0.45900002
0.10136699 -0.048479863 0.46000001
0.10261252 -0.048690647 0.46200001
0.10364117 -0.048796035 0.46300003
0.10444771 -0.048796035 0.46300003
0.10570892 -0.04900682 0.46500003
0.10651895 -0.04900682 0.46500003
0.10779061 -0.0492176 0.46700001
0.10883668 -0.049322993 0.46800002
0.10988624 -0.049428381 0.46900001
0.11093928 -0.049533773 0.47000003
0.11223359 -0.049744554 0.47200003
0.11305581 -0.049744554 0.47200003
0.11436056 -0.049955338 0.47400004
0.11518627 -0.049955338 0.47400004
0.11601198 -0.049955338 0.47400004
0.053971518 -0.047574893 0.45900002
0.054771096 -0.047574893 0.45900002
0.055570673 -0.047574893 0.45900002
0.056247443 -0.047471244 0.45800003
0.057045277 -0.047471244 0.45800003
0.057843115 -0.047471244 0.45800003
0.058512911 -0.047367595 0.45700002
0.059309006 -0.047367595 0.45700002
0.059973579 -0.047263946 0.45600003
0.060634669 -0.047160298 0.45500001
0.06142728 -0.047160298 0.45500001
0.06208314 -0.047056649 0.45400003
0.06273552 -0.046953 0.45300001
0.063384414 -0.046849351 0.45200002
0.064171799 -0.046849351 0.45200002
0.064815469 -0.046745703 0.45100003
0.065455653 -0.046642054 0.45000002
0.066092357 -0.046538405 0.44900003
0.066725574 -0.046434756 0.44800001
0.067505985 -0.046434756 0.44800001
0.06813398 -0.046331108 0.44700003
0.068758488 -0.046227455 0.44600001
0.069379508 -0.046123806 0.44500002
0.070154697 -0.046123806 0.44500002
0.070929892 -0.046123806 0.44500002
0.071705081 -0.046123806 0.44500002
0.072317392 -0.046020158 0.44400004
0.073090844 -0.046020158 0.44400004
0.073864289 -0.046020158 0.44400004
0.074637733 -0.046020158 0.44400004
0.075411186 -0.046020158 0.44400004
0.07618463 -0.046020158 0.44400004
0.077131413 -0.046123806 0.44500002
0.077906601 -0.046123806 0.44500002
0.078681789 -0.046123806 0.44500002
0.079456978 -0.046123806 0.44500002
0.08041247 -0.046227455 0.44600001
0.081189401 -0.046227455 0.44600001
0.081966333 -0.046227455 0.44600001
0.082928784 -0.046331108 0.44700003
0.083894722 -0.046434756 0.44800001
0.084675141 -0.046434756 0.44800001
0.085455559 -0.046434756 0.44800001
0.086428463 -0.046538405 0.44900003
0.087404855 -0.046642054 0.45000002
0.088384733 -0.046745703 0.45100003
0.089170374 -0.046745703 0.45100003
0.089956015 -0.046745703 0.45100003
0.091144055 -0.046953 0.45300001
0.09213613 -0.047056649 0.45400003
0.092926994 -0.047056649 0.45400003
0.093924291 -0.047160298 0.45500001
0.094716899 -0.047160298 0.45500001
0.095719419 -0.047263946 0.45600003
0.096725427 -0.047367595 0.45700002
0.097521521 -0.047367595 0.45700002
0.098532751 -0.047471244 0.45800003
0.099547468 -0.047574893 0.45900002
0.10034704 -0.047574893 0.45900002
0.10136699 -0.047678541 0.46000001
0.10261252 -0.047885843 0.46200001
0.10364117 -0.047989491 0.46300003
0.1046733 -0.04809314 0.46400002
0.10570892 -0.048196789 0.46500003
0.10674802 -0.048300438 0.46600002
0.10802142 -0.048507735 0.46800002
0.10883668 -0.048507735 0.46800002
0.10988624 -0.048611384 0.46900001
0.11093928 -0.048715033 0.47000003
0.11223359 -0.04892233 0.47200003
0.11305581 -0.04892233 0.47200003
0.11387803 -0.04892233 0.47200003
0.11470026 -0.04892233 0.47200003
0.053853933 -0.04667341 0.45800003
0.054651771 -0.04667341 0.45800003
0.055449605 -0.04667341 0.45800003
0.056247443 -0.04667341 0.45800003
0.057045277 -0.04667341 0.45800003
0.057843115 -0.04667341 0.45800003
0.058512911 -0.046571501 0.45700002
0.059309006 -0.046571501 0.45700002
0.059973579 -0.046469595 0.45600003
0.060634669 -0.046367686 0.45500001
0.06142728 -0.046367686 0.45500001
0.06208314 -0.046265781 0.45400003
0.062874012 -0.046265781 0.45400003
0.063524649 -0.046163876 0.45300001
0.064171799 -0.046061967 0.45200002
0.064815469 -0.045960061 0.45100003
0.06560111 -0.045960061 0.45100003
0.066239551 -0.045858152 0.45000002
0.066874512 -0.045756247 0.44900003
0.067505985 -0.045654338 0.44800001
0.06813398 -0.045552433 0.44700003
0.068758488 -0.045450523 0.44600001
0.069535419 -0.045450523 0.44600001
0.070154697 -0.045348618 0.44500002
0.070929892 -0.045348618 0.44500002
0.071705081 -0.045348618 0.44500002
0.072317392 -0.045246709 0.44400004
0.073090844 -0.045246709 0.44400004
0.073864289 -0.045246709 0.44400004
0.074637733 -0.045246709 0.44400004
0.075411186 -0.045246709 0.44400004
0.07618463 -0.045246709 0.44400004
0.076958083 -0.045246709 0.44400004
0.077906601 -0.045348618 0.44500002
0.078681789 -0.045348618 0.44500002
0.079456978 -0.045348618 0.44500002
0.080232173 -0.045348618 0.44500002
0.081007361 -0.045348618 0.44500002
0.081966333 -0.045450523 0.44600001
0.082743265 -0.045450523 0.44600001
0.083707459 -0.045552433 0.44700003
0.084675141 -0.045654338 0.44800001
0.085455559 -0.045654338 0.44800001
0.086428463 -0.045756247 0.44900003
0.087210625 -0.045756247 0.44900003
0.088188753 -0.045858152 0.45000002
0.089170374 -0.045960061 0.45100003
0.089956015 -0.045960061 0.45100003
0.091144055 -0.046163876 0.45300001
0.09213613 -0.046265781 0.45400003
0.092926994 -0.046265781 0.45400003
0.093924291 -0.046367686 0.45500001
0.094716899 -0.046367686 0.45500001
0.095509514 -0.046367686 0.45500001
0.096725427 -0.046571501 0.45700002
0.097521521 -0.046571501 0.45700002
0.098532751 -0.04667341 0.45800003
0.099764347 -0.046877224 0.46000001
0.10056566 -0.046877224 0.46000001
0.10136699 -0.046877224 0.46000001
0.10283462 -0.047182944 0.46300003
0.10364117 -0.047182944 0.46300003
0.1046733 -0.047284853 0.46400002
0.10570892 -0.047386758 0.46500003
0.1069771 -0.047590572 0.46700001
0.10802142 -0.047692478 0.46800002
0.10906924 -0.047794387 0.46900001
0.11012053 -0.047896292 0.47000003
0.11093928 -0.047896292 0.47000003
0.11223359 -0.048100106 0.47200003
0.11305581 -0.048100106 0.47200003
0.11387803 -0.048100106 0.47200003
0.05317194 -0.045975737 0.45900002
0.053971518 -0.045975737 0.45900002
0.054771096 -0.045975737 0.45900002
0.055570673 -0.045975737 0.45900002
0.056247443 -0.045875572 0.45800003
0.057045277 -0.045875572 0.45800003
0.057843115 -0.045875572 0.45800003
0.058512911 -0.045775406 0.45700002
0.059309006 -0.045775406 0.45700002
0.0601051 -0.045775406 0.45700002
0.06076793 -0.045675244 0.45600003
0.06142728 -0.045575079 0.45500001
0.062219888 -0.045575079 0.45500001
0.062874012 -0.045474913 0.45400003
0.063664876 -0.045474913 0.45400003
0.064171799 -0.045274582 0.45200002
0.064959183 -0.045274582 0.45200002
0.06560111 -0.045174416 0.45100003
0.066239551 -0.045074254 0.45000002
0.066874512 -0.044974089 0.44900003
0.067656673 -0.044974089 0.44900003
0.068286404 -0.044873923 0.44800001
0.068912655 -0.044773757 0.44700003
0.069535419 -0.044673592 0.44600001
0.070312351 -0.044673592 0.44600001
0.070929892 -0.044573426 0.44500002
0.071705081 -0.044573426 0.44500002
0.072480269 -0.044573426 0.44500002
0.073090844 -0.044473264 0.44400004
0.073864289 -0.044473264 0.44400004
0.074637733 -0.044473264 0.44400004
0.075411186 -0.044473264 0.44400004
0.07618463 -0.044473264 0.44400004
0.076958083 -0.044473264 0.44400004
0.077731527 -0.044473264 0.44400004
0.07850498 -0.044473264 0.44400004
0.079278424 -0.044473264 0.44400004
0.080232173 -0.044573426 0.44500002
0.081007361 -0.044573426 0.44500002
0.08178255 -0.044573426 0.44500002
0.082743265 -0.044673592 0.44600001
0.083520196 -0.044673592 0.44600001
0.084486134 -0.044773757 0.44700003
0.085455559 -0.044873923 0.44800001
0.08623597 -0.044873923 0.44800001
0.087210625 -0.044974089 0.44900003
0.088188753 -0.045074254 0.45000002
0.089170374 -0.045174416 0.45100003
0.089956015 -0.045174416 0.45100003
0.091144055 -0.045374747 0.45300001
0.09213613 -0.045474913 0.45400003
0.092926994 -0.045474913 0.45400003
0.093924291 -0.045575079 0.45500001
0.094716899 -0.045575079 0.45500001
0.095509514 -0.045575079 0.45500001
0.096725427 -0.045775406 0.45700002
0.097734913 -0.045875572 0.45800003
0.098747887 -0.045975737 0.45900002
0.099764347 -0.046075903 0.46000001
0.10056566 -0.046075903 0.46000001
0.10136699 -0.046075903 0.46000001
0.10283462 -0.0463764 0.46300003
0.10386501 -0.046476562 0.46400002
0.10489889 -0.046576727 0.46500003
0.10593625 -0.046676893 0.46600002
0.1069771 -0.046777058 0.46700001
0.10802142 -0.046877224 0.46800002
0.10906924 -0.04697739 0.46900001
0.11012053 -0.047077551 0.47000003
0.11093928 -0.047077551 0.47000003
0.11175802 -0.047077551 0.47000003
0.054890424 -0.045274582 0.46000001
0.055691745 -0.045274582 0.46000001
0.056370251 -0.04517616 0.45900002
0.057169832 -0.04517616 0.45900002
0.05796941 -0.04517616 0.45900002
0.058640949 -0.045077737 0.45800003
0.059309006 -0.044979315 0.45700002
0.0601051 -0.044979315 0.45700002
