# .PCD v0.7 - Point Cloud Data file format
VERSION 0.7
FIELDS x y z
SIZE 4 4 4
TYPE F F F
COUNT 1 1 1
WIDTH 1342
HEIGHT 1
VIEWPOINT 0 0 0 1 0 0 0
POINTS 1342
DATA ascii
0.073780671 -0.061551832 0.46800002
0.074595928 -0.061551832 0.46800002
0.075250052 -0.06142031 0.46700001
0.075900689 -0.061288789 0.46600002
0.076547839 -0.061157268 0.46500003
0.077357873 -0.061157268 0.46500003
0.0779998 -0.061025746 0.46400002
0.078808084 -0.061025746 0.46400002
0.079444788 -0.060894229 0.46300003
0.080251329 -0.060894229 0.46300003
0.08088281 -0.060762707 0.46200001
0.081687614 -0.060762707 0.46200001
0.082313858 -0.060631186 0.46100003
0.082936622 -0.060499664 0.46000001
0.083737947 -0.060499664 0.46000001
0.084539264 -0.060499664 0.46000001
0.085340582 -0.060499664 0.46000001
0.086141907 -0.060499664 0.46000001
0.086943224 -0.060499664 0.46000001
0.087553799 -0.060368143 0.45900002
0.088545866 -0.060499664 0.46000001
0.089347184 -0.060499664 0.46000001
0.089952528 -0.060368143 0.45900002
0.09075211 -0.060368143 0.45900002
0.091551684 -0.060368143 0.45900002
0.092150062 -0.060236622 0.45800003
0.0929479 -0.060236622 0.45800003
0.093745738 -0.060236622 0.45800003
0.094543569 -0.060236622 0.45800003
0.095341407 -0.060236622 0.45800003
0.062942818 -0.062942818 0.48500001
0.063656166 -0.062813044 0.48400003
0.064366035 -0.062683262 0.48300001
0.065072417 -0.06255348 0.48200002
0.06591206 -0.06255348 0.48200002
0.066613212 -0.062423702 0.48100004
0.067310885 -0.062293924 0.48000002
0.067863099 -0.062034365 0.47800002
0.068552062 -0.061904587 0.47700003
0.069237538 -0.061774809 0.47600001
0.069772333 -0.061515249 0.47400004
0.070300154 -0.061255693 0.47200003
0.071122378 -0.061255693 0.47200003
0.071639754 -0.060996134 0.47000003
0.072458498 -0.060996134 0.47000003
0.072965413 -0.060736574 0.46800002
0.073780671 -0.060736574 0.46800002
0.074436538 -0.060606796 0.46700001
0.075250052 -0.060606796 0.46700001
0.075900689 -0.060477018 0.46600002
0.076547839 -0.06034724 0.46500003
0.077357873 -0.06034724 0.46500003
0.0779998 -0.060217459 0.46400002
0.078638241 -0.060087681 0.46300003
0.079273202 -0.059957903 0.46200001
0.080078006 -0.059957903 0.46200001
0.080707736 -0.059828121 0.46100003
0.081510797 -0.059828121 0.46100003
0.082313858 -0.059828121 0.46100003
0.082936622 -0.059698343 0.46000001
0.083737947 -0.059698343 0.46000001
0.084355481 -0.059568565 0.45900002
0.085155062 -0.059568565 0.45900002
0.085954644 -0.059568565 0.45900002
0.086754218 -0.059568565 0.45900002
0.087363049 -0.059438787 0.45800003
0.08816088 -0.059438787 0.45800003
0.088958718 -0.059438787 0.45800003
0.089756556 -0.059438787 0.45800003
0.090554394 -0.059438787 0.45800003
0.091352224 -0.059438787 0.45800003
0.092150062 -0.059438787 0.45800003
0.092744954 -0.059309006 0.45700002
0.093541048 -0.059309006 0.45700002
0.094337143 -0.059309006 0.45700002
0.095133238 -0.059309006 0.45700002
0.061379373 -0.062225986 0.48600003
0.062225986 -0.062225986 0.48600003
0.063072599 -0.062225986 0.48600003
0.063656166 -0.061969914 0.48400003
0.064366035 -0.061841875 0.48300001
0.065072417 -0.061713837 0.48200002
0.06591206 -0.061713837 0.48200002
0.066751704 -0.061713837 0.48200002
0.067310885 -0.061457764 0.48000002
0.067863099 -0.061201692 0.47800002
0.068552062 -0.061073653 0.47700003
0.069237538 -0.060945615 0.47600001
0.069772333 -0.060689542 0.47400004
0.070300154 -0.060433466 0.47200003
0.070971698 -0.060305431 0.47100002
0.071639754 -0.060177393 0.47000003
0.072304331 -0.060049355 0.46900001
0.072965413 -0.059921321 0.46800002
0.073780671 -0.059921321 0.46800002
0.074436538 -0.059793282 0.46700001
0.075088918 -0.059665244 0.46600002
0.075900689 -0.059665244 0.46600002
0.076547839 -0.05953721 0.46500003
0.077191509 -0.059409171 0.46400002
0.077831693 -0.059281133 0.46300003
0.078638241 -0.059281133 0.46300003
0.079101615 -0.05902506 0.46100003
0.079904675 -0.05902506 0.46100003
0.080707736 -0.05902506 0.46100003
0.081333987 -0.058897022 0.46000001
0.082135305 -0.058897022 0.46000001
0.082936622 -0.058897022 0.46000001
0.083555907 -0.058768988 0.45900002
0.084171705 -0.058640949 0.45800003
0.084969543 -0.058640949 0.45800003
0.085767373 -0.058640949 0.45800003
0.086565211 -0.058640949 0.45800003
0.087363049 -0.058640949 0.45800003
0.08816088 -0.058640949 0.45800003
0.088764489 -0.058512911 0.45700002
0.089560583 -0.058512911 0.45700002
0.090356678 -0.058512911 0.45700002
0.091152772 -0.058512911 0.45700002
0.091948859 -0.058512911 0.45700002
0.092744954 -0.058512911 0.45700002
0.093336366 -0.058384877 0.45600003
0.094130717 -0.058384877 0.45600003
0.094925068 -0.058384877 0.45600003
0.095719419 -0.058384877 0.45600003
0.063072599 -0.061379373 0.48600003
0.063919209 -0.061379373 0.48600003
0.064366035 -0.061000489 0.48300001
0.065072417 -0.060874194 0.48200002
0.06591206 -0.060874194 0.48200002
0.066613212 -0.060747899 0.48100004
0.067310885 -0.060621604 0.48000002
0.067863099 -0.060369015 0.47800002
0.068552062 -0.06024272 0.47700003
0.069237538 -0.060116425 0.47600001
0.069772333 -0.059863836 0.47400004
0.070300154 -0.059611242 0.47200003
0.071122378 -0.059611242 0.47200003
0.071639754 -0.059358653 0.47000003
0.072304331 -0.059232358 0.46900001
0.072965413 -0.059106063 0.46800002
0.073623024 -0.058979768 0.46700001
0.074436538 -0.058979768 0.46700001
0.075088918 -0.058853474 0.46600002
0.075737812 -0.058727179 0.46500003
0.076547839 -0.058727179 0.46500003
0.077025145 -0.058474589 0.46300003
0.077831693 -0.058474589 0.46300003
0.078468397 -0.058348294 0.46200001
0.079101615 -0.058222 0.46100003
0.079904675 -0.058222 0.46100003
0.080532663 -0.058095705 0.46000001
0.081333987 -0.058095705 0.46000001
0.082135305 -0.058095705 0.46000001
0.082756326 -0.05796941 0.45900002
0.083373867 -0.057843115 0.45800003
0.084171705 -0.057843115 0.45800003
0.084784016 -0.05771682 0.45700002
0.085580111 -0.05771682 0.45700002
0.086187199 -0.057590522 0.45600003
0.08698155 -0.057590522 0.45600003
0.087775901 -0.057590522 0.45600003
0.088570252 -0.057590522 0.45600003
0.089364603 -0.057590522 0.45600003
0.090158954 -0.057590522 0.45600003
0.090953313 -0.057590522 0.45600003
0.091747664 -0.057590522 0.45600003
0.092542015 -0.057590522 0.45600003
0.093131684 -0.057464227 0.45500001
0.094130717 -0.057590522 0.45600003
0.094716899 -0.057464227 0.45500001
0.095509514 -0.057464227 0.45500001
0.062683262 -0.060159102 0.48300001
0.063524649 -0.060159102 0.48300001
0.064366035 -0.060159102 0.48300001
0.065072417 -0.060034551 0.48200002
0.06591206 -0.060034551 0.48200002
0.066474721 -0.059785444 0.48000002
0.067310885 -0.059785444 0.48000002
0.067863099 -0.059536338 0.47800002
0.068552062 -0.059411786 0.47700003
0.069237538 -0.059287231 0.47600001
0.069772333 -0.059038125 0.47400004
0.070300154 -0.058789019 0.47200003
0.071122378 -0.058789019 0.47200003
0.071639754 -0.058539912 0.47000003
0.072304331 -0.058415361 0.46900001
0.072965413 -0.058290809 0.46800002
0.073623024 -0.058166254 0.46700001
0.07427714 -0.058041703 0.46600002
0.075088918 -0.058041703 0.46600002
0.075737812 -0.057917148 0.46500003
0.076383218 -0.057792597 0.46400002
0.077025145 -0.057668041 0.46300003
0.077831693 -0.057668041 0.46300003
0.078468397 -0.05754349 0.46200001
0.079101615 -0.057418935 0.46100003
0.079904675 -0.057418935 0.46100003
0.080532663 -0.057294384 0.46000001
0.081333987 -0.057294384 0.46000001
0.081956752 -0.057169832 0.45900002
0.082576029 -0.057045277 0.45800003
0.083373867 -0.057045277 0.45800003
0.083987921 -0.056920726 0.45700002
0.084784016 -0.056920726 0.45700002
0.085205577 -0.056671619 0.45500001
0.085998192 -0.056671619 0.45500001
0.0867908 -0.056671619 0.45500001
0.087583408 -0.056671619 0.45500001
0.088376023 -0.056671619 0.45500001
0.089168631 -0.056671619 0.45500001
0.089961238 -0.056671619 0.45500001
0.090753853 -0.056671619 0.45500001
0.091546461 -0.056671619 0.45500001
0.092339069 -0.056671619 0.45500001
0.093131684 -0.056671619 0.45500001
0.093924291 -0.056671619 0.45500001
0.094716899 -0.056671619 0.45500001
0.095509514 -0.056671619 0.45500001
0.063524649 -0.059317715 0.48300001
0.064366035 -0.059317715 0.48300001
0.065207422 -0.059317715 0.48300001
0.066048808 -0.059317715 0.48300001
0.066890188 -0.059317715 0.48300001
0.06674996 -0.058458041 0.47600001
0.06757915 -0.058458041 0.47600001
0.068408348 -0.058458041 0.47600001
0.06909208 -0.05833523 0.47500002
0.069772333 -0.058212418 0.47400004
0.070300154 -0.057966795 0.47200003
0.070971698 -0.057843983 0.47100002
0.071639754 -0.057721175 0.47000003
0.072150163 -0.057475552 0.46800002
0.072965413 -0.057475552 0.46800002
0.073623024 -0.05735274 0.46700001
0.07427714 -0.057229929 0.46600002
0.074927777 -0.057107117 0.46500003
0.075737812 -0.057107117 0.46500003
0.076383218 -0.056984309 0.46400002
0.077025145 -0.056861497 0.46300003
0.077663593 -0.056738686 0.46200001
0.078298546 -0.056615874 0.46100003
0.079101615 -0.056615874 0.46100003
0.079731345 -0.056493063 0.46000001
0.080532663 -0.056493063 0.46000001
0.08115717 -0.056370251 0.45900002
0.081778198 -0.056247443 0.45800003
0.082576029 -0.056247443 0.45800003
0.083191827 -0.056124631 0.45700002
0.083987921 -0.056124631 0.45700002
0.084598497 -0.05600182 0.45600003
0.085205577 -0.055879008 0.45500001
0.085998192 -0.055879008 0.45500001
0.0867908 -0.055879008 0.45500001
0.087583408 -0.055879008 0.45500001
0.088376023 -0.055879008 0.45500001
0.089168631 -0.055879008 0.45500001
0.089961238 -0.055879008 0.45500001
0.090554394 -0.055756196 0.45400003
0.091345258 -0.055756196 0.45400003
0.09213613 -0.055756196 0.45400003
0.092926994 -0.055756196 0.45400003
0.093924291 -0.055879008 0.45500001
0.09450873 -0.055756196 0.45400003
0.095299602 -0.055756196 0.45400003
0.063524649 -0.058476329 0.48300001
0.064366035 -0.058476329 0.48300001
0.065072417 -0.058355261 0.48200002
0.06591206 -0.058355261 0.48200002
0.067437179 -0.057507779 0.47500002
0.068264626 -0.057507779 0.47500002
0.068946622 -0.057386711 0.47400004
0.069772333 -0.057386711 0.47400004
0.070449099 -0.057265639 0.47300002
0.071122378 -0.057144571 0.47200003
0.071639754 -0.056902435 0.47000003
0.072150163 -0.056660295 0.46800002
0.07280951 -0.056539226 0.46700001
0.07346537 -0.056418158 0.46600002
0.07427714 -0.056418158 0.46600002
0.074927777 -0.05629709 0.46500003
0.075737812 -0.05629709 0.46500003
0.076218605 -0.05605495 0.46300003
0.077025145 -0.05605495 0.46300003
0.077663593 -0.055933882 0.46200001
0.078298546 -0.055812813 0.46100003
0.079101615 -0.055812813 0.46100003
0.079731345 -0.055691745 0.46000001
0.080357596 -0.055570673 0.45900002
0.080980361 -0.055449605 0.45800003
0.081778198 -0.055449605 0.45800003
0.082395732 -0.055328537 0.45700002
0.083191827 -0.055328537 0.45700002
0.083804138 -0.055207469 0.45600003
0.084598497 -0.055207469 0.45600003
0.085205577 -0.055086397 0.45500001
0.085998192 -0.055086397 0.45500001
0.0867908 -0.055086397 0.45500001
0.087583408 -0.055086397 0.45500001
0.088181786 -0.054965328 0.45400003
0.088972658 -0.054965328 0.45400003
0.089763522 -0.054965328 0.45400003
0.090554394 -0.054965328 0.45400003
0.09094286 -0.054723192 0.45200002
0.091527298 -0.054602124 0.45100003
0.092517629 -0.054723192 0.45200002
0.093717866 -0.054965328 0.45400003
0.09450873 -0.054965328 0.45400003
0.095089689 -0.05484426 0.45300001
0.095878817 -0.05484426 0.45300001
0.096454546 -0.054723192 0.45200002
0.097241931 -0.054723192 0.45200002
0.10016936 -0.054602124 0.45100003
0.10073116 -0.054481052 0.45000002
0.10151505 -0.054481052 0.45000002
0.064366035 -0.057634946 0.48300001
0.065072417 -0.057515617 0.48200002
0.06591206 -0.057515617 0.48200002
0.067437179 -0.056680329 0.47500002
0.068264626 -0.056680329 0.47500002
0.068946622 -0.056561001 0.47400004
0.069772333 -0.056561001 0.47400004
0.070449099 -0.056441676 0.47300002
0.071122378 -0.056322347 0.47200003
0.071792178 -0.056203019 0.47100002
0.072458498 -0.056083694 0.47000003
0.072965413 -0.055845041 0.46800002
0.07346537 -0.055606384 0.46600002
0.07411775 -0.055487059 0.46500003
0.074927777 -0.055487059 0.46500003
0.075574934 -0.055367731 0.46400002
0.076218605 -0.055248406 0.46300003
0.077025145 -0.055248406 0.46300003
0.077663593 -0.055129077 0.46200001
0.078298546 -0.055009749 0.46100003
0.079101615 -0.055009749 0.46100003
0.079731345 -0.054890424 0.46000001
0.080357596 -0.054771096 0.45900002
0.080980361 -0.054651771 0.45800003
0.081599638 -0.054532442 0.45700002
0.082215436 -0.054413114 0.45600003
0.083009787 -0.054413114 0.45600003
0.083620362 -0.054293789 0.45500001
0.08441297 -0.054293789 0.45500001
0.085205577 -0.054293789 0.45500001
0.085809186 -0.05417446 0.45400003
0.08660005 -0.05417446 0.45400003
0.087390922 -0.05417446 0.45400003
0.088181786 -0.05417446 0.45400003
0.088776678 -0.054055136 0.45300001
0.08936809 -0.053935807 0.45200002
0.089956015 -0.053816479 0.45100003
0.090741657 -0.053816479 0.45100003
0.091527298 -0.053816479 0.45100003
0.092312939 -0.053816479 0.45100003
0.093098581 -0.053816479 0.45100003
0.093884222 -0.053816479 0.45100003
0.094669864 -0.053816479 0.45100003
0.095455512 -0.053816479 0.45100003
0.096241154 -0.053816479 0.45100003
0.097026795 -0.053816479 0.45100003
0.097812437 -0.053816479 0.45100003
0.098598078 -0.053816479 0.45100003
0.099383719 -0.053816479 0.45100003
0.099947259 -0.053697154 0.45000002
0.10073116 -0.053697154 0.45000002
0.10151505 -0.053697154 0.45000002
0.10229896 -0.053697154 0.45000002
0.067437179 -0.055852879 0.47500002
0.068264626 -0.055852879 0.47500002
0.068946622 -0.055735294 0.47400004
0.069772333 -0.055735294 0.47400004
0.070449099 -0.055617709 0.47300002
0.071122378 -0.055500124 0.47200003
0.071792178 -0.055382539 0.47100002
0.072458498 -0.055264954 0.47000003
0.07280951 -0.054912198 0.46700001
0.07346537 -0.054794613 0.46600002
0.07411775 -0.054677028 0.46500003
0.074927777 -0.054677028 0.46500003
0.075412057 -0.054441858 0.46300003
0.076218605 -0.054441858 0.46300003
0.076858789 -0.054324273 0.46200001
0.077495486 -0.054206688 0.46100003
0.078298546 -0.054206688 0.46100003
0.078930028 -0.054089103 0.46000001
0.079731345 -0.054089103 0.46000001
0.080182523 -0.053853933 0.45800003
0.080803543 -0.053736348 0.45700002
0.081599638 -0.053736348 0.45700002
0.082215436 -0.053618763 0.45600003
0.082827747 -0.053501178 0.45500001
0.083620362 -0.053501178 0.45500001
0.08441297 -0.053501178 0.45500001
0.085018314 -0.053383593 0.45400003
0.085809186 -0.053383593 0.45400003
0.08660005 -0.053383593 0.45400003
0.087198429 -0.053266007 0.45300001
0.08779332 -0.053148422 0.45200002
0.088580705 -0.053148422 0.45200002
0.089170374 -0.053030837 0.45100003
0.089956015 -0.053030837 0.45100003
0.090741657 -0.053030837 0.45100003
0.091527298 -0.053030837 0.45100003
0.092108257 -0.052913252 0.45000002
0.092892155 -0.052913252 0.45000002
0.093676053 -0.052913252 0.45000002
0.094459958 -0.052913252 0.45000002
0.095243856 -0.052913252 0.45000002
0.096241154 -0.053030837 0.45100003
0.097026795 -0.053030837 0.45100003
0.097812437 -0.053030837 0.45100003
0.098598078 -0.053030837 0.45100003
0.099383719 -0.053030837 0.45100003
0.099947259 -0.052913252 0.45000002
0.10073116 -0.052913252 0.45000002
0.10151505 -0.052913252 0.45000002
0.068264626 -0.055025429 0.47500002
0.068946622 -0.054909587 0.47400004
0.069772333 -0.054909587 0.47400004
0.070598036 -0.054909587 0.47400004
0.071122378 -0.0546779 0.47200003
0.071944602 -0.0546779 0.47200003
0.072458498 -0.054446213 0.47000003
0.07280951 -0.054098684 0.46700001
0.073307723 -0.053866997 0.46500003
0.07411775 -0.053866997 0.46500003
0.074766643 -0.053751156 0.46400002
0.075412057 -0.053635314 0.46300003
0.076053984 -0.053519469 0.46200001
0.076858789 -0.053519469 0.46200001
0.077495486 -0.053403627 0.46100003
0.078298546 -0.053403627 0.46100003
0.078930028 -0.053287782 0.46000001
0.079558015 -0.05317194 0.45900002
0.080182523 -0.053056099 0.45800003
0.080803543 -0.052940253 0.45700002
0.081599638 -0.052940253 0.45700002
0.082215436 -0.052824412 0.45600003
0.082827747 -0.05270857 0.45500001
0.083620362 -0.05270857 0.45500001
0.08422745 -0.052592725 0.45400003
0.085018314 -0.052592725 0.45400003
0.085809186 -0.052592725 0.45400003
0.086409301 -0.052476883 0.45300001
0.087005936 -0.052361038 0.45200002
0.08779332 -0.052361038 0.45200002
0.088384733 -0.052245196 0.45100003
0.089170374 -0.052245196 0.45100003
0.089956015 -0.052245196 0.45100003
0.090540454 -0.052129354 0.45000002
0.091324359 -0.052129354 0.45000002
0.091903567 -0.052013509 0.44900003
0.092685729 -0.052013509 0.44900003
0.093467884 -0.052013509 0.44900003
0.094250046 -0.052013509 0.44900003
0.0950322 -0.052013509 0.44900003
0.095814362 -0.052013509 0.44900003
0.09681166 -0.052129354 0.45000002
0.097595558 -0.052129354 0.45000002
0.098379456 -0.052129354 0.45000002
0.099163353 -0.052129354 0.45000002
0.099947259 -0.052129354 0.45000002
0.10073116 -0.052129354 0.45000002
0.10151505 -0.052129354 0.45000002
0.067437179 -0.054197978 0.47500002
0.068264626 -0.054197978 0.47500002
0.06909208 -0.054197978 0.47500002
0.069772333 -0.054083876 0.47400004
0.070598036 -0.054083876 0.47400004
0.071423747 -0.054083876 0.47400004
0.072249457 -0.054083876 0.47400004
0.071995996 -0.05328517 0.46700001
0.07280951 -0.05328517 0.46700001
0.073307723 -0.053056967 0.46500003
0.07411775 -0.053056967 0.46500003
0.07460551 -0.052828766 0.46300003
0.075412057 -0.052828766 0.46300003
0.076053984 -0.052714664 0.46200001
0.076692425 -0.052600563 0.46100003
0.077495486 -0.052600563 0.46100003
0.078298546 -0.052600563 0.46100003
0.078930028 -0.052486464 0.46000001
0.079558015 -0.052372362 0.45900002
0.080182523 -0.052258261 0.45800003
0.080803543 -0.052144159 0.45700002
0.081599638 -0.052144159 0.45700002
0.082035139 -0.051915959 0.45500001
0.082827747 -0.051915959 0.45500001
0.083436579 -0.051801857 0.45400003
0.08422745 -0.051801857 0.45400003
0.084831052 -0.051687755 0.45300001
0.08562018 -0.051687755 0.45300001
0.086218551 -0.051573656 0.45200002
0.087005936 -0.051573656 0.45200002
0.087599091 -0.051459555 0.45100003
0.088384733 -0.051459555 0.45100003
0.089170374 -0.051459555 0.45100003
0.089756556 -0.051345453 0.45000002
0.090540454 -0.051345453 0.45000002
0.091121413 -0.051231351 0.44900003
0.091903567 -0.051231351 0.44900003
0.092685729 -0.051231351 0.44900003
0.093467884 -0.051231351 0.44900003
0.094250046 -0.051231351 0.44900003
0.0950322 -0.051231351 0.44900003
0.095814362 -0.051231351 0.44900003
0.096596517 -0.051231351 0.44900003
0.097378679 -0.051231351 0.44900003
0.098160833 -0.051231351 0.44900003
0.098942995 -0.051231351 0.44900003
0.09972515 -0.051231351 0.44900003
0.10050731 -0.051231351 0.44900003
0.10128947 -0.051231351 0.44900003
0.10229896 -0.051345453 0.45000002
0.067437179 -0.053370528 0.47500002
0.068120912 -0.053258169 0.47400004
0.068946622 -0.053258169 0.47400004
0.069772333 -0.053258169 0.47400004
0.070598036 -0.053258169 0.47400004
0.071423747 -0.053258169 0.47400004
0.072249457 -0.053258169 0.47400004
0.072150163 -0.052584015 0.46800002
0.072965413 -0.052584015 0.46800002
0.073307723 -0.052246939 0.46500003
0.07395836 -0.052134581 0.46400002
0.07460551 -0.052022219 0.46300003
0.075412057 -0.052022219 0.46300003
0.076053984 -0.05190986 0.46200001
0.076692425 -0.051797502 0.46100003
0.077495486 -0.051797502 0.46100003
0.078298546 -0.051797502 0.46100003
0.078930028 -0.051685143 0.46000001
0.079558015 -0.051572785 0.45900002
0.080182523 -0.051460426 0.45800003
0.080803543 -0.051348068 0.45700002
0.081421085 -0.051235706 0.45600003
0.082035139 -0.051123347 0.45500001
0.082645714 -0.051010989 0.45400003
0.083436579 -0.051010989 0.45400003
0.084041923 -0.05089863 0.45300001
0.084643789 -0.050786272 0.45200002
0.085431166 -0.050786272 0.45200002
0.086027801 -0.050673913 0.45100003
0.08681345 -0.050673913 0.45100003
0.087599091 -0.050673913 0.45100003
0.088188753 -0.050561555 0.45000002
0.088972658 -0.050561555 0.45000002
0.089557096 -0.050449193 0.44900003
0.090339258 -0.050449193 0.44900003
0.091121413 -0.050449193 0.44900003
0.091903567 -0.050449193 0.44900003
0.092479303 -0.050336834 0.44800001
0.093259715 -0.050336834 0.44800001
0.094040133 -0.050336834 0.44800001
0.094820552 -0.050336834 0.44800001
0.095600963 -0.050336834 0.44800001
0.096381381 -0.050336834 0.44800001
0.0971618 -0.050336834 0.44800001
0.098160833 -0.050449193 0.44900003
0.098942995 -0.050449193 0.44900003
0.09972515 -0.050449193 0.44900003
0.10050731 -0.050449193 0.44900003
0.10128947 -0.050449193 0.44900003
0.10229896 -0.050561555 0.45000002
0.10331193 -0.050673913 0.45100003
0.069772333 -0.052432463 0.47400004
0.072150163 -0.051768757 0.46800002
0.072497688 -0.051436909 0.46500003
0.073307723 -0.051436909 0.46500003
0.07411775 -0.051436909 0.46500003
0.07460551 -0.051215675 0.46300003
0.075412057 -0.051215675 0.46300003
0.075889364 -0.050994441 0.46100003
0.076692425 -0.050994441 0.46100003
0.077495486 -0.050994441 0.46100003
0.078128703 -0.050883822 0.46000001
0.078758441 -0.050773207 0.45900002
0.079384685 -0.050662588 0.45800003
0.080007449 -0.050551973 0.45700002
0.080626734 -0.050441355 0.45600003
0.081242532 -0.050330739 0.45500001
0.081854843 -0.050220121 0.45400003
0.082463674 -0.050109506 0.45300001
0.083252795 -0.050109506 0.45300001
0.083856404 -0.049998887 0.45200002
0.084643789 -0.049998887 0.45200002
0.08524216 -0.049888272 0.45100003
0.086027801 -0.049888272 0.45100003
0.08681345 -0.049888272 0.45100003
0.087404855 -0.049777653 0.45000002
0.088188753 -0.049777653 0.45000002
0.088774942 -0.049667034 0.44900003
0.089557096 -0.049667034 0.44900003
0.090339258 -0.049667034 0.44900003
0.090918466 -0.049556419 0.44800001
0.091698885 -0.049556419 0.44800001
0.092479303 -0.049556419 0.44800001
0.093259715 -0.049556419 0.44800001
0.094040133 -0.049556419 0.44800001
0.094820552 -0.049556419 0.44800001
0.095600963 -0.049556419 0.44800001
0.096381381 -0.049556419 0.44800001
0.0971618 -0.049556419 0.44800001
0.098160833 -0.049667034 0.44900003
0.098942995 -0.049667034 0.44900003
0.09972515 -0.049667034 0.44900003
0.10050731 -0.049667034 0.44900003
0.10151505 -0.049777653 0.45000002
0.10252628 -0.049888272 0.45100003
0.10331193 -0.049888272 0.45100003
0.10432839 -0.049998887 0.45200002
0.10511577 -0.049998887 0.45200002
0.10590316 -0.049998887 0.45200002
0.072150163 -0.050953504 0.46800002
0.072965413 -0.050953504 0.46800002
0.07346537 -0.050735753 0.46600002
0.07411775 -0.050626878 0.46500003
0.074766643 -0.050518002 0.46400002
0.075412057 -0.050409127 0.46300003
0.076053984 -0.050300252 0.46200001
0.076692425 -0.050191376 0.46100003
0.077495486 -0.050191376 0.46100003
0.078128703 -0.050082505 0.46000001
0.078758441 -0.049973629 0.45900002
0.079384685 -0.049864754 0.45800003
0.080007449 -0.049755879 0.45700002
0.080626734 -0.049647003 0.45600003
0.081242532 -0.049538128 0.45500001
0.081854843 -0.049429253 0.45400003
0.082281634 -0.049211502 0.45200002
0.083069019 -0.049211502 0.45200002
0.083856404 -0.049211502 0.45200002
0.084456518 -0.049102627 0.45100003
0.08524216 -0.049102627 0.45100003
0.085837059 -0.048993751 0.45000002
0.086620957 -0.048993751 0.45000002
0.087404855 -0.048993751 0.45000002
0.08799278 -0.04888488 0.44900003
0.088577218 -0.048776004 0.44800001
0.089357637 -0.048776004 0.44800001
0.090138055 -0.048776004 0.44800001
0.090918466 -0.048776004 0.44800001
0.091698885 -0.048776004 0.44800001
0.092479303 -0.048776004 0.44800001
0.093259715 -0.048776004 0.44800001
0.094040133 -0.048776004 0.44800001
0.094820552 -0.048776004 0.44800001
0.095600963 -0.048776004 0.44800001
0.096381381 -0.048776004 0.44800001
0.0971618 -0.048776004 0.44800001
0.098160833 -0.04888488 0.44900003
0.098942995 -0.04888488 0.44900003
0.09972515 -0.04888488 0.44900003
0.10050731 -0.04888488 0.44900003
0.10151505 -0.048993751 0.45000002
0.10252628 -0.049102627 0.45100003
0.10331193 -0.049102627 0.45100003
0.10432839 -0.049211502 0.45200002
0.10511577 -0.049211502 0.45200002
0.10590316 -0.049211502 0.45200002
0.10692658 -0.049320377 0.45300001
0.1077157 -0.049320377 0.45300001
0.071995996 -0.050031114 0.46700001
0.07280951 -0.050031114 0.46700001
0.07346537 -0.049923982 0.46600002
0.07411775 -0.049816847 0.46500003
0.074927777 -0.049816847 0.46500003
0.075412057 -0.049602583 0.46300003
0.075889364 -0.049388316 0.46100003
0.076692425 -0.049388316 0.46100003
0.077327386 -0.049281184 0.46000001
0.078128703 -0.049281184 0.46000001
0.078758441 -0.049174052 0.45900002
0.079384685 -0.049066916 0.45800003
0.080007449 -0.048959784 0.45700002
0.080626734 -0.048852652 0.45600003
0.081242532 -0.048745517 0.45500001
0.081674546 -0.048531253 0.45300001
0.082281634 -0.048424117 0.45200002
0.083069019 -0.048424117 0.45200002
0.083670877 -0.048316985 0.45100003
0.084456518 -0.048316985 0.45100003
0.085053153 -0.048209853 0.45000002
0.085837059 -0.048209853 0.45000002
0.086428463 -0.048102722 0.44900003
0.087210625 -0.048102722 0.44900003
0.08799278 -0.048102722 0.44900003
0.088577218 -0.047995586 0.44800001
0.089357637 -0.047995586 0.44800001
0.090138055 -0.047995586 0.44800001
0.090918466 -0.047995586 0.44800001
0.091494203 -0.047888454 0.44700003
0.092272878 -0.047888454 0.44700003
0.093051545 -0.047888454 0.44700003
0.09383022 -0.047888454 0.44700003
0.094820552 -0.047995586 0.44800001
0.095600963 -0.047995586 0.44800001
0.096381381 -0.047995586 0.44800001
0.0971618 -0.047995586 0.44800001
0.097942211 -0.047995586 0.44800001
0.098942995 -0.048102722 0.44900003
0.09972515 -0.048102722 0.44900003
0.10050731 -0.048102722 0.44900003
0.10151505 -0.048209853 0.45000002
0.10252628 -0.048316985 0.45100003
0.10331193 -0.048316985 0.45100003
0.10432839 -0.048424117 0.45200002
0.10511577 -0.048424117 0.45200002
0.10590316 -0.048424117 0.45200002
0.10669054 -0.048424117 0.45200002
0.1077157 -0.048531253 0.45300001
0.10850483 -0.048531253 0.45300001
0.10929396 -0.048531253 0.45300001
0.11008308 -0.048531253 0.45300001
0.071334906 -0.049322993 0.46800002
0.072150163 -0.049322993 0.46800002
0.07280951 -0.0492176 0.46700001
0.07346537 -0.049112208 0.46600002
0.07427714 -0.049112208 0.46600002
0.074927777 -0.04900682 0.46500003
0.075412057 -0.048796035 0.46300003
0.076053984 -0.048690647 0.46200001
0.076692425 -0.048585255 0.46100003
0.077327386 -0.048479863 0.46000001
0.078128703 -0.048479863 0.46000001
0.078586854 -0.048269082 0.45800003
0.079384685 -0.048269082 0.45800003
0.080007449 -0.04816369 0.45700002
0.080626734 -0.048058297 0.45600003
0.081063978 -0.047847517 0.45400003
0.081494249 -0.047636736 0.45200002
0.082281634 -0.047636736 0.45200002
0.082885236 -0.047531344 0.45100003
0.083670877 -0.047531344 0.45100003
0.084269255 -0.047425952 0.45000002
0.084864147 -0.047320563 0.44900003
0.085646309 -0.047320563 0.44900003
0.086428463 -0.047320563 0.44900003
0.087210625 -0.047320563 0.44900003
0.087796807 -0.047215171 0.44800001
0.088577218 -0.047215171 0.44800001
0.089357637 -0.047215171 0.44800001
0.089936852 -0.047109779 0.44700003
0.090715528 -0.047109779 0.44700003
0.091494203 -0.047109779 0.44700003
0.092272878 -0.047109779 0.44700003
0.093051545 -0.047109779 0.44700003
0.09383022 -0.047109779 0.44700003
0.094820552 -0.047215171 0.44800001
0.095600963 -0.047215171 0.44800001
0.096381381 -0.047215171 0.44800001
0.0971618 -0.047215171 0.44800001
0.098160833 -0.047320563 0.44900003
0.098942995 -0.047320563 0.44900003
0.09972515 -0.047320563 0.44900003
0.10073116 -0.047425952 0.45000002
0.10151505 -0.047425952 0.45000002
0.10252628 -0.047531344 0.45100003
0.10331193 -0.047531344 0.45100003
0.10432839 -0.047636736 0.45200002
0.10511577 -0.047636736 0.45200002
0.10590316 -0.047636736 0.45200002
0.10669054 -0.047636736 0.45200002
0.1077157 -0.047742125 0.45300001
0.10850483 -0.047742125 0.45300001
0.10929396 -0.047742125 0.45300001
0.072150163 -0.048507735 0.46800002
0.07280951 -0.048404086 0.46700001
0.07346537 -0.048300438 0.46600002
0.07427714 -0.048300438 0.46600002
0.074927777 -0.048196789 0.46500003
0.075412057 -0.047989491 0.46300003
0.076053984 -0.047885843 0.46200001
0.076692425 -0.04778219 0.46100003
0.077327386 -0.047678541 0.46000001
0.077789016 -0.047471244 0.45800003
0.078586854 -0.047471244 0.45800003
0.079211354 -0.047367595 0.45700002
0.080007449 -0.047367595 0.45700002
0.080626734 -0.047263946 0.45600003
0.081063978 -0.047056649 0.45400003
0.081494249 -0.046849351 0.45200002
0.082099594 -0.046745703 0.45100003
0.082885236 -0.046745703 0.45100003
0.083670877 -0.046745703 0.45100003
0.084269255 -0.046642054 0.45000002
0.084864147 -0.046538405 0.44900003
0.085646309 -0.046538405 0.44900003
0.08623597 -0.046434756 0.44800001
0.087016389 -0.046434756 0.44800001
0.087796807 -0.046434756 0.44800001
0.088577218 -0.046434756 0.44800001
0.089158177 -0.046331108 0.44700003
0.089936852 -0.046331108 0.44700003
0.090715528 -0.046331108 0.44700003
0.091494203 -0.046331108 0.44700003
0.092272878 -0.046331108 0.44700003
0.093051545 -0.046331108 0.44700003
0.094040133 -0.046434756 0.44800001
0.094820552 -0.046434756 0.44800001
0.095600963 -0.046434756 0.44800001
0.096381381 -0.046434756 0.44800001
0.0971618 -0.046434756 0.44800001
0.098160833 -0.046538405 0.44900003
0.098942995 -0.046538405 0.44900003
0.099947259 -0.046642054 0.45000002
0.10073116 -0.046642054 0.45000002
0.10174064 -0.046745703 0.45100003
0.10275362 -0.046849351 0.45200002
0.103541 -0.046849351 0.45200002
0.10432839 -0.046849351 0.45200002
0.10534833 -0.046953 0.45300001
0.10613745 -0.046953 0.45300001
0.10692658 -0.046953 0.45300001
0.1077157 -0.046953 0.45300001
0.10850483 -0.046953 0.45300001
0.10929396 -0.046953 0.45300001
0.071995996 -0.047590572 0.46700001
0.07280951 -0.047590572 0.46700001
0.07346537 -0.047488663 0.46600002
0.07411775 -0.047386758 0.46500003
0.074927777 -0.047386758 0.46500003
0.075412057 -0.047182944 0.46300003
0.075889364 -0.046979129 0.46100003
0.076526068 -0.046877224 0.46000001
0.077327386 -0.046877224 0.46000001
0.077789016 -0.04667341 0.45800003
0.078586854 -0.04667341 0.45800003
0.079211354 -0.046571501 0.45700002
0.080007449 -0.046571501 0.45700002
0.080449916 -0.046367686 0.45500001
0.081063978 -0.046265781 0.45400003
0.081494249 -0.046061967 0.45200002
0.082099594 -0.045960061 0.45100003
0.082885236 -0.045960061 0.45100003
0.083670877 -0.045960061 0.45100003
0.084269255 -0.045858152 0.45000002
0.084864147 -0.045756247 0.44900003
0.085646309 -0.045756247 0.44900003
0.08623597 -0.045654338 0.44800001
0.087016389 -0.045654338 0.44800001
0.087600827 -0.045552433 0.44700003
0.088379502 -0.045552433 0.44700003
0.089158177 -0.045552433 0.44700003
0.08973565 -0.045450523 0.44600001
0.090715528 -0.045552433 0.44700003
0.091289513 -0.045450523 0.44600001
0.092272878 -0.045552433 0.44700003
0.093051545 -0.045552433 0.44700003
0.094040133 -0.045654338 0.44800001
0.094820552 -0.045654338 0.44800001
0.095600963 -0.045654338 0.44800001
0.096381381 -0.045654338 0.44800001
0.097378679 -0.045756247 0.44900003
0.098160833 -0.045756247 0.44900003
0.099163353 -0.045858152 0.45000002
0.10016936 -0.045960061 0.45100003
0.100955 -0.045960061 0.45100003
0.10196623 -0.046061967 0.45200002
0.10275362 -0.046061967 0.45200002
0.103541 -0.046061967 0.45200002
0.1045592 -0.046163876 0.45300001
0.10558088 -0.046265781 0.45400003
0.10637175 -0.046265781 0.45400003
0.10716262 -0.046265781 0.45400003
0.10795349 -0.046265781 0.45400003
0.10874435 -0.046265781 0.45400003
0.10953522 -0.046265781 0.45400003
0.11105512 -0.046571501 0.45700002
0.072653599 -0.046676893 0.46600002
0.07346537 -0.046676893 0.46600002
0.07411775 -0.046576727 0.46500003
0.074927777 -0.046576727 0.46500003
0.075412057 -0.0463764 0.46300003
0.076053984 -0.046276234 0.46200001
0.076526068 -0.046075903 0.46000001
0.077159278 -0.045975737 0.45900002
0.077789016 -0.045875572 0.45800003
0.078415267 -0.045775406 0.45700002
0.079211354 -0.045775406 0.45700002
0.080007449 -0.045775406 0.45700002
0.080449916 -0.045575079 0.45500001
0.081063978 -0.045474913 0.45400003
0.081494249 -0.045274582 0.45200002
0.082099594 -0.045174416 0.45100003
0.082701452 -0.045074254 0.45000002
0.083485357 -0.045074254 0.45000002
0.084081993 -0.044974089 0.44900003
0.084864147 -0.044974089 0.44900003
0.085455559 -0.044873923 0.44800001
0.08623597 -0.044873923 0.44800001
0.087016389 -0.044873923 0.44800001
0.087600827 -0.044773757 0.44700003
0.088379502 -0.044773757 0.44700003
0.089158177 -0.044773757 0.44700003
0.08973565 -0.044673592 0.44600001
0.090715528 -0.044773757 0.44700003
0.091494203 -0.044773757 0.44700003
0.092272878 -0.044773757 0.44700003
0.093051545 -0.044773757 0.44700003
0.094040133 -0.044873923 0.44800001
0.094820552 -0.044873923 0.44800001
0.095600963 -0.044873923 0.44800001
0.096596517 -0.044974089 0.44900003
0.097378679 -0.044974089 0.44900003
0.098379456 -0.045074254 0.45000002
0.099383719 -0.045174416 0.45100003
0.10016936 -0.045174416 0.45100003
0.10117885 -0.045274582 0.45200002
0.10196623 -0.045274582 0.45200002
0.10298095 -0.045374747 0.45300001
0.10377008 -0.045374747 0.45300001
0.10479002 -0.045474913 0.45400003
0.10558088 -0.045474913 0.45400003
0.10637175 -0.045474913 0.45400003
0.10716262 -0.045474913 0.45400003
0.10795349 -0.045474913 0.45400003
0.10898388 -0.045575079 0.45500001
0.11025903 -0.045775406 0.45700002
0.11105512 -0.045775406 0.45700002
0.072653599 -0.045865122 0.46600002
0.07346537 -0.045865122 0.46600002
0.07411775 -0.045766696 0.46500003
0.074927777 -0.045766696 0.46500003
0.075412057 -0.045569852 0.46300003
0.076053984 -0.04547143 0.46200001
0.076692425 -0.045373008 0.46100003
0.077327386 -0.045274582 0.46000001
0.077789016 -0.045077737 0.45800003
0.078415267 -0.044979315 0.45700002
0.079211354 -0.044979315 0.45700002
0.079832383 -0.044880889 0.45600003
0.080449916 -0.044782467 0.45500001
0.081063978 -0.044684045 0.45400003
0.081494249 -0.044487197 0.45200002
0.082099594 -0.044388775 0.45100003
0.082701452 -0.044290353 0.45000002
0.083485357 -0.044290353 0.45000002
0.084081993 -0.04419193 0.44900003
0.084864147 -0.04419193 0.44900003
0.085455559 -0.044093508 0.44800001
0.08623597 -0.044093508 0.44800001
0.087016389 -0.044093508 0.44800001
0.087600827 -0.043995082 0.44700003
0.088379502 -0.043995082 0.44700003
0.089158177 -0.043995082 0.44700003
0.089936852 -0.043995082 0.44700003
0.090918466 -0.044093508 0.44800001
0.091698885 -0.044093508 0.44800001
0.092479303 -0.044093508 0.44800001
0.093259715 -0.044093508 0.44800001
0.094040133 -0.044093508 0.44800001
0.0950322 -0.04419193 0.44900003
0.095814362 -0.04419193 0.44900003
0.096596517 -0.04419193 0.44900003
0.097595558 -0.044290353 0.45000002
0.098598078 -0.044388775 0.45100003
0.099604085 -0.044487197 0.45200002
0.10039147 -0.044487197 0.45200002
0.10117885 -0.044487197 0.45200002
0.10219182 -0.044585623 0.45300001
0.10320828 -0.044684045 0.45400003
0.10399915 -0.044684045 0.45400003
0.10479002 -0.044684045 0.45400003
0.10581344 -0.044782467 0.45500001
0.10660605 -0.044782467 0.45500001
0.10739866 -0.044782467 0.45500001
0.10819127 -0.044782467 0.45500001
0.10946293 -0.044979315 0.45700002
0.11025903 -0.044979315 0.45700002
0.11105512 -0.044979315 0.45700002
0.072653599 -0.045053348 0.46600002
0.073307723 -0.044956669 0.46500003
0.07411775 -0.044956669 0.46500003
0.074766643 -0.044859987 0.46400002
0.075412057 -0.044763304 0.46300003
0.076053984 -0.044666626 0.46200001
0.076526068 -0.044473264 0.46000001
0.077159278 -0.044376582 0.45900002
0.077789016 -0.044279899 0.45800003
0.078415267 -0.044183221 0.45700002
0.079211354 -0.044183221 0.45700002
0.079832383 -0.044086538 0.45600003
0.080449916 -0.04398986 0.45500001
0.081063978 -0.043893177 0.45400003
0.081494249 -0.043699816 0.45200002
0.082099594 -0.043603133 0.45100003
0.082701452 -0.043506451 0.45000002
0.083485357 -0.043506451 0.45000002
0.084081993 -0.043409772 0.44900003
0.084675141 -0.04331309 0.44800001
0.085455559 -0.04331309 0.44800001
0.08623597 -0.04331309 0.44800001
0.087016389 -0.04331309 0.44800001
0.087796807 -0.04331309 0.44800001
0.088379502 -0.043216411 0.44700003
0.089158177 -0.043216411 0.44700003
0.089936852 -0.043216411 0.44700003
0.090918466 -0.04331309 0.44800001
0.091698885 -0.04331309 0.44800001
0.092479303 -0.04331309 0.44800001
0.093259715 -0.04331309 0.44800001
0.094250046 -0.043409772 0.44900003
0.0950322 -0.043409772 0.44900003
0.096027754 -0.043506451 0.45000002
0.097026795 -0.043603133 0.45100003
0.097812437 -0.043603133 0.45100003
0.0988167 -0.043699816 0.45200002
0.099604085 -0.043699816 0.45200002
0.10039147 -0.043699816 0.45200002
0.1014027 -0.043796495 0.45300001
0.10241741 -0.043893177 0.45400003
0.10320828 -0.043893177 0.45400003
0.10399915 -0.043893177 0.45400003
0.10502083 -0.04398986 0.45500001
0.10581344 -0.04398986 0.45500001
0.10660605 -0.04398986 0.45500001
0.10739866 -0.04398986 0.45500001
0.10866684 -0.044183221 0.45700002
0.10946293 -0.044183221 0.45700002
0.11025903 -0.044183221 0.45700002
0.072497688 -0.044146638 0.46500003
0.073307723 -0.044146638 0.46500003
0.07395836 -0.044051699 0.46400002
0.074766643 -0.044051699 0.46400002
0.075412057 -0.04395676 0.46300003
0.076053984 -0.043861821 0.46200001
0.076526068 -0.043671943 0.46000001
0.076991178 -0.043482065 0.45800003
0.077619173 -0.043387126 0.45700002
0.078415267 -0.043387126 0.45700002
0.079038031 -0.043292187 0.45600003
0.079832383 -0.043292187 0.45600003
0.080449916 -0.043197248 0.45500001
0.081063978 -0.043102309 0.45400003
0.081494249 -0.042912431 0.45200002
0.082099594 -0.042817492 0.45100003
0.082701452 -0.042722553 0.45000002
0.083485357 -0.042722553 0.45000002
0.084081993 -0.042627614 0.44900003
0.084675141 -0.042532675 0.44800001
0.085455559 -0.042532675 0.44800001
0.08623597 -0.042532675 0.44800001
0.087016389 -0.042532675 0.44800001
0.087796807 -0.042532675 0.44800001
0.088577218 -0.042532675 0.44800001
0.089357637 -0.042532675 0.44800001
0.090138055 -0.042532675 0.44800001
0.090918466 -0.042532675 0.44800001
0.091698885 -0.042532675 0.44800001
0.092685729 -0.042627614 0.44900003
0.093467884 -0.042627614 0.44900003
0.094459958 -0.042722553 0.45000002
0.095243856 -0.042722553 0.45000002
0.096241154 -0.042817492 0.45100003
0.097241931 -0.042912431 0.45200002
0.098029315 -0.042912431 0.45200002
0.0988167 -0.042912431 0.45200002
0.099604085 -0.042912431 0.45200002
0.10061357 -0.04300737 0.45300001
0.10162655 -0.043102309 0.45400003
0.10241741 -0.043102309 0.45400003
0.10343561 -0.043197248 0.45500001
0.10422822 -0.043197248 0.45500001
0.10502083 -0.043197248 0.45500001
0.10581344 -0.043197248 0.45500001
0.10684035 -0.043292187 0.45600003
0.1076347 -0.043292187 0.45600003
0.10866684 -0.043387126 0.45700002
0.10946293 -0.043387126 0.45700002
0.11025903 -0.043387126 0.45700002
0.072341777 -0.043243412 0.46400002
0.073150069 -0.043243412 0.46400002
0.07395836 -0.043243412 0.46400002
0.074766643 -0.043243412 0.46400002
0.075412057 -0.043150213 0.46300003
0.076218605 -0.043150213 0.46300003
0.077025145 -0.043150213 0.46300003
0.076823078 -0.042591032 0.45700002
0.077619173 -0.042591032 0.45700002
0.078415267 -0.042591032 0.45700002
0.079038031 -0.042497836 0.45600003
0.079657309 -0.042404637 0.45500001
0.080449916 -0.042404637 0.45500001
0.081063978 -0.042311441 0.45400003
0.081494249 -0.042125046 0.45200002
0.082099594 -0.042031851 0.45100003
0.082701452 -0.041938651 0.45000002
0.083485357 -0.041938651 0.45000002
0.084081993 -0.041845456 0.44900003
0.084675141 -0.04175226 0.44800001
0.085455559 -0.04175226 0.44800001
0.08623597 -0.04175226 0.44800001
0.087016389 -0.04175226 0.44800001
0.087796807 -0.04175226 0.44800001
0.088577218 -0.04175226 0.44800001
0.089357637 -0.04175226 0.44800001
0.090138055 -0.04175226 0.44800001
0.090918466 -0.04175226 0.44800001
0.091903567 -0.041845456 0.44900003
0.092685729 -0.041845456 0.44900003
0.093676053 -0.041938651 0.45000002
0.094669864 -0.042031851 0.45100003
0.095455512 -0.042031851 0.45100003
0.096454546 -0.042125046 0.45200002
0.097241931 -0.042125046 0.45200002
0.098029315 -0.042125046 0.45200002
0.099035323 -0.042218242 0.45300001
0.099824443 -0.042218242 0.45300001
0.10083567 -0.042311441 0.45400003
0.10162655 -0.042311441 0.45400003
0.102643 -0.042404637 0.45500001
0.10343561 -0.042404637 0.45500001
0.10422822 -0.042404637 0.45500001
0.10502083 -0.042404637 0.45500001
0.106046 -0.042497836 0.45600003
0.10707465 -0.042591032 0.45700002
0.10787074 -0.042591032 0.45700002
0.10866684 -0.042591032 0.45700002
0.10970246 -0.042684227 0.45800003
0.11025903 -0.042591032 0.45700002
0.073150069 -0.042435121 0.46400002
0.07395836 -0.042435121 0.46400002
0.074766643 -0.042435121 0.46400002
0.075574934 -0.042435121 0.46400002
0.076218605 -0.042343669 0.46300003
0.077025145 -0.042343669 0.46300003
0.077831693 -0.042343669 0.46300003
0.077619173 -0.041794937 0.45700002
0.078415267 -0.041794937 0.45700002
0.078864701 -0.041612029 0.45500001
0.079657309 -0.041612029 0.45500001
0.080449916 -0.041612029 0.45500001
0.080885418 -0.041429117 0.45300001
0.081494249 -0.041337661 0.45200002
0.082099594 -0.041246209 0.45100003
0.082701452 -0.041154753 0.45000002
0.083485357 -0.041154753 0.45000002
0.084081993 -0.041063298 0.44900003
0.084864147 -0.041063298 0.44900003
0.085455559 -0.040971842 0.44800001
0.08623597 -0.040971842 0.44800001
0.087016389 -0.040971842 0.44800001
0.087796807 -0.040971842 0.44800001
0.088577218 -0.040971842 0.44800001
0.089357637 -0.040971842 0.44800001
0.090339258 -0.041063298 0.44900003
0.091121413 -0.041063298 0.44900003
0.091903567 -0.041063298 0.44900003
0.092892155 -0.041154753 0.45000002
0.093884222 -0.041246209 0.45100003
0.094669864 -0.041246209 0.45100003
0.095667161 -0.041337661 0.45200002
0.096454546 -0.041337661 0.45200002
0.097457066 -0.041429117 0.45300001
0.098246194 -0.041429117 0.45300001
0.099253938 -0.041520573 0.45400003
0.10004481 -0.041520573 0.45400003
0.10083567 -0.041520573 0.45400003
0.10185039 -0.041612029 0.45500001
0.102643 -0.041612029 0.45500001
0.10343561 -0.041612029 0.45500001
0.1044573 -0.041703481 0.45600003
0.10548246 -0.041794937 0.45700002
0.10627855 -0.041794937 0.45700002
0.10730895 -0.041886393 0.45800003
0.10810678 -0.041886393 0.45800003
0.10890462 -0.041886393 0.45800003
0.10970246 -0.041886393 0.45800003
0.11050029 -0.041886393 0.45800003
0.073307723 -0.041716546 0.46500003
0.07411775 -0.041716546 0.46500003
0.074766643 -0.041626833 0.46400002
0.075574934 -0.041626833 0.46400002
0.076218605 -0.041537121 0.46300003
0.077025145 -0.041537121 0.46300003
0.077831693 -0.041537121 0.46300003
0.07824368 -0.04090913 0.45600003
0.079038031 -0.04090913 0.45600003
0.079657309 -0.040819418 0.45500001
0.080273107 -0.040729705 0.45400003
0.080706865 -0.04055028 0.45200002
0.081494249 -0.04055028 0.45200002
0.082099594 -0.040460564 0.45100003
0.082885236 -0.040460564 0.45100003
0.083485357 -0.040370852 0.45000002
0.084081993 -0.040281139 0.44900003
0.084864147 -0.040281139 0.44900003
0.085455559 -0.040191427 0.44800001
0.08623597 -0.040191427 0.44800001
0.087016389 -0.040191427 0.44800001
0.087796807 -0.040191427 0.44800001
0.088774942 -0.040281139 0.44900003
0.089557096 -0.040281139 0.44900003
0.090339258 -0.040281139 0.44900003
0.091324359 -0.040370852 0.45000002
0.092312939 -0.040460564 0.45100003
0.093098581 -0.040460564 0.45100003
0.093884222 -0.040460564 0.45100003
0.094879776 -0.04055028 0.45200002
0.095667161 -0.04055028 0.45200002
0.096667938 -0.040639993 0.45300001
0.097672202 -0.040729705 0.45400003
0.098463073 -0.040729705 0.45400003
0.099253938 -0.040729705 0.45400003
0.10026517 -0.040819418 0.45500001
0.10105778 -0.040819418 0.45500001
0.10185039 -0.040819418 0.45500001
0.10286859 -0.04090913 0.45600003
0.10366295 -0.04090913 0.45600003
0.10468636 -0.040998843 0.45700002
0.10548246 -0.040998843 0.45700002
0.10651112 -0.041088555 0.45800003
0.10730895 -0.041088555 0.45800003
0.10834283 -0.041178271 0.45900002
0.1091424 -0.041178271 0.45900002
0.10994198 -0.041178271 0.45900002
0.11074156 -0.041178271 0.45900002
0.11154114 -0.041178271 0.45900002
0.07411775 -0.040906519 0.46500003
0.074927777 -0.040906519 0.46500003
0.075574934 -0.040818546 0.46400002
0.076218605 -0.040730577 0.46300003
0.078864701 -0.040026806 0.45500001
0.079657309 -0.040026806 0.45500001
0.080273107 -0.039938837 0.45400003
0.080706865 -0.039762896 0.45200002
0.081494249 -0.039762896 0.45200002
0.082099594 -0.039674923 0.45100003
0.082701452 -0.039586954 0.45000002
0.083485357 -0.039586954 0.45000002
0.084081993 -0.039498981 0.44900003
0.084864147 -0.039498981 0.44900003
0.085646309 -0.039498981 0.44900003
0.086428463 -0.039498981 0.44900003
0.087210625 -0.039498981 0.44900003
0.08799278 -0.039498981 0.44900003
0.088774942 -0.039498981 0.44900003
0.089557096 -0.039498981 0.44900003
0.090540454 -0.039586954 0.45000002
0.091527298 -0.039674923 0.45100003
0.092312939 -0.039674923 0.45100003
0.093098581 -0.039674923 0.45100003
0.093884222 -0.039674923 0.45100003
0.094879776 -0.039762896 0.45200002
0.095667161 -0.039762896 0.45200002
0.096667938 -0.039850865 0.45300001
0.097672202 -0.039938837 0.45400003
0.098679952 -0.040026806 0.45500001
0.09947256 -0.040026806 0.45500001
0.10026517 -0.040026806 0.45500001
0.10127988 -0.040114779 0.45600003
0.10207424 -0.040114779 0.45600003
0.10309418 -0.040202748 0.45700002
0.10389027 -0.040202748 0.45700002
0.10491544 -0.040290721 0.45800003
0.10571328 -0.040290721 0.45800003
0.10651112 -0.040290721 0.45800003
0.10754324 -0.04037869 0.45900002
0.10857887 -0.040466662 0.46000001
0.10938019 -0.040466662 0.46000001
0.11018151 -0.040466662 0.46000001
0.11098283 -0.040466662 0.46000001
0.078691371 -0.039147969 0.45400003
0.079482242 -0.039147969 0.45400003
0.080096297 -0.03906174 0.45300001
0.080706865 -0.038975511 0.45200002
0.081313953 -0.038889281 0.45100003
0.082099594 -0.038889281 0.45100003
0.082885236 -0.038889281 0.45100003
0.083485357 -0.038803052 0.45000002
0.084081993 -0.038716823 0.44900003
0.084864147 -0.038716823 0.44900003
0.085646309 -0.038716823 0.44900003
0.086428463 -0.038716823 0.44900003
0.087210625 -0.038716823 0.44900003
0.08799278 -0.038716823 0.44900003
0.088972658 -0.038803052 0.45000002
0.089756556 -0.038803052 0.45000002
0.090741657 -0.038889281 0.45100003
0.091527298 -0.038889281 0.45100003
0.092312939 -0.038889281 0.45100003
0.093305007 -0.038975511 0.45200002
0.094092391 -0.038975511 0.45200002
0.095089689 -0.03906174 0.45300001
0.095878817 -0.03906174 0.45300001
0.096881337 -0.039147969 0.45400003
0.097887345 -0.039234199 0.45500001
0.098679952 -0.039234199 0.45500001
0.099691182 -0.039320428 0.45600003
0.10048553 -0.039320428 0.45600003
0.10150199 -0.039406657 0.45700002
0.10229809 -0.039406657 0.45700002
0.10309418 -0.039406657 0.45700002
0.1041176 -0.039492883 0.45800003
0.10491544 -0.039492883 0.45800003
0.10594409 -0.039579112 0.45900002
0.10697623 -0.039665341 0.46000001
0.10777754 -0.039665341 0.46000001
0.10857887 -0.039665341 0.46000001
0.10938019 -0.039665341 0.46000001
0.11018151 -0.039665341 0.46000001
0.11098283 -0.039665341 0.46000001
0.080706865 -0.038188126 0.45200002
0.081313953 -0.03810364 0.45100003
0.082099594 -0.03810364 0.45100003
0.082885236 -0.03810364 0.45100003
0.083485357 -0.038019154 0.45000002
0.084081993 -0.037934665 0.44900003
0.084864147 -0.037934665 0.44900003
0.085646309 -0.037934665 0.44900003
0.086620957 -0.038019154 0.45000002
0.087404855 -0.038019154 0.45000002
0.088188753 -0.038019154 0.45000002
0.089170374 -0.03810364 0.45100003
0.089956015 -0.03810364 0.45100003
0.09094286 -0.038188126 0.45200002
0.091730244 -0.038188126 0.45200002
0.092517629 -0.038188126 0.45200002
0.09351144 -0.038272612 0.45300001
0.09450873 -0.038357101 0.45400003
0.095299602 -0.038357101 0.45400003
0.096090466 -0.038357101 0.45400003
0.09709473 -0.038441587 0.45500001
0.09810248 -0.038526073 0.45600003
0.098896831 -0.038526073 0.45600003
0.099909805 -0.038610563 0.45700002
0.1007059 -0.038610563 0.45700002
0.10150199 -0.038610563 0.45700002
0.10229809 -0.038610563 0.45700002
0.10331977 -0.038695049 0.45800003
0.1041176 -0.038695049 0.45800003
0.10514452 -0.038779534 0.45900002
0.10617491 -0.038864024 0.46000001
0.10697623 -0.038864024 0.46000001
0.10777754 -0.038864024 0.46000001
0.10857887 -0.038864024 0.46000001
0.10938019 -0.038864024 0.46000001
0.11018151 -0.038864024 0.46000001
0.11098283 -0.038864024 0.46000001
0.081313953 -0.037317999 0.45100003
