# .PCD v0.7 - Point Cloud Data file format
VERSION 0.7
FIELDS x y z
SIZE 4 4 4
TYPE F F F
COUNT 1 1 1
WIDTH 1320
HEIGHT 1
VIEWPOINT 0 0 0 1 0 0 0
POINTS 1320
DATA ascii
0.075885877 -0.012215775 0.42500001
0.07644593 -0.012187033 0.42400002
0.046688218 -0.011961443 0.44300002
0.047459923 -0.011961443 0.44300002
0.048122752 -0.011934442 0.44200003
0.048782099 -0.011907442 0.44100001
0.049437962 -0.011880441 0.44000003
0.050090343 -0.01185344 0.43900001
0.050739236 -0.011826439 0.43800002
0.051384646 -0.011799438 0.43700001
0.052026574 -0.011772437 0.43600002
0.052786086 -0.011772437 0.43600002
0.05342279 -0.011745436 0.43500003
0.054056004 -0.011718434 0.43400002
0.054559443 -0.011664432 0.43200001
0.055183951 -0.011637432 0.43100002
0.055804975 -0.011610431 0.43000001
0.056422513 -0.01158343 0.42900002
0.057169832 -0.01158343 0.42900002
0.057782143 -0.011556429 0.42800003
0.058527719 -0.011556429 0.42800003
0.059134807 -0.011529428 0.42700002
0.05987864 -0.011529428 0.42700002
0.059912611 -0.011394423 0.42200002
0.060647734 -0.011394423 0.42200002
0.061237402 -0.011367422 0.42100003
0.061970782 -0.011367422 0.42100003
0.062704168 -0.011367422 0.42100003
0.063286863 -0.011340421 0.42000002
0.063866079 -0.01131342 0.41900003
0.064441808 -0.011286419 0.41800001
0.065169968 -0.011286419 0.41800001
0.06589812 -0.011286419 0.41800001
0.066626281 -0.011286419 0.41800001
0.067354433 -0.011286419 0.41800001
0.068245471 -0.01131342 0.41900003
0.069139987 -0.011340421 0.42000002
0.069871627 -0.011340421 0.42000002
0.070771366 -0.011367422 0.42100003
0.071674593 -0.011394423 0.42200002
0.072581306 -0.011421423 0.42300001
0.073318169 -0.011421423 0.42300001
0.074230112 -0.011448424 0.42400002
0.075322345 -0.011502427 0.42600003
0.076064438 -0.011502427 0.42600003
0.076626226 -0.011475426 0.42500001
0.077366583 -0.011475426 0.42500001
0.046020158 -0.011214997 0.44400004
0.046793606 -0.011214997 0.44400004
0.047459923 -0.011189737 0.44300002
0.048122752 -0.011164479 0.44200003
0.048782099 -0.01113922 0.44100001
0.049550321 -0.01113922 0.44100001
0.050204445 -0.01111396 0.44000003
0.050855082 -0.011088702 0.43900001
0.051384646 -0.011038183 0.43700001
0.052145902 -0.011038183 0.43700001
0.052786086 -0.011012925 0.43600002
0.05342279 -0.010987666 0.43500003
0.054056004 -0.010962407 0.43400002
0.054685738 -0.010937148 0.43300003
0.055183951 -0.01088663 0.43100002
0.055804975 -0.010861371 0.43000001
0.056422513 -0.010836111 0.42900002
0.057169832 -0.010836111 0.42900002
0.057782143 -0.010810853 0.42800003
0.058527719 -0.010810853 0.42800003
0.059134807 -0.010785594 0.42700002
0.05987864 -0.010785594 0.42700002
0.060196556 -0.010709817 0.42400002
0.060791448 -0.010684557 0.42300001
0.061382856 -0.010659299 0.42200002
0.062117983 -0.010659299 0.42200002
0.062704168 -0.01063404 0.42100003
0.063437544 -0.01063404 0.42100003
0.064018503 -0.01060878 0.42000002
0.064595975 -0.010583522 0.41900003
0.065325879 -0.010583522 0.41900003
0.066055775 -0.010583522 0.41900003
0.066785671 -0.010583522 0.41900003
0.067515567 -0.010583522 0.41900003
0.068245471 -0.010583522 0.41900003
0.069139987 -0.01060878 0.42000002
0.069871627 -0.01060878 0.42000002
0.070939474 -0.010659299 0.42200002
0.071674593 -0.010659299 0.42200002
0.072581306 -0.010684557 0.42300001
0.073318169 -0.010684557 0.42300001
0.074405178 -0.010735076 0.42500001
0.075499155 -0.010785594 0.42700002
0.076242991 -0.010785594 0.42700002
0.076986827 -0.010785594 0.42700002
0.046688218 -0.010418031 0.44300002
0.047459923 -0.010418031 0.44300002
0.048122752 -0.010394515 0.44200003
0.048892718 -0.010394515 0.44200003
0.049550321 -0.010370998 0.44100001
0.050318543 -0.010370998 0.44100001
0.050970923 -0.010347481 0.44000003
0.051619817 -0.010323964 0.43900001
0.052265231 -0.010300446 0.43800002
0.052786086 -0.010253413 0.43600002
0.05342279 -0.010229896 0.43500003
0.054056004 -0.010206379 0.43400002
0.054685738 -0.010182861 0.43300003
0.055311989 -0.010159344 0.43200001
0.055934753 -0.010135828 0.43100002
0.056554034 -0.010112311 0.43000001
0.057169832 -0.010088794 0.42900002
0.057917148 -0.010088794 0.42900002
0.058527719 -0.010065276 0.42800003
0.059134807 -0.010041759 0.42700002
0.059738409 -0.010018243 0.42600003
0.060338527 -0.0099947257 0.42500001
0.060791448 -0.009947692 0.42300001
0.061528314 -0.009947692 0.42300001
0.062117983 -0.0099241743 0.42200002
0.062853105 -0.0099241743 0.42200002
0.063437544 -0.0099006575 0.42100003
0.064018503 -0.0098771406 0.42000002
0.064750142 -0.0098771406 0.42000002
0.065325879 -0.0098536238 0.41900003
0.066055775 -0.0098536238 0.41900003
0.066785671 -0.0098536238 0.41900003
0.067676701 -0.0098771406 0.42000002
0.068408348 -0.0098771406 0.42000002
0.0693046 -0.0099006575 0.42100003
0.070037983 -0.0099006575 0.42100003
0.071107574 -0.009947692 0.42300001
0.071844436 -0.009947692 0.42300001
0.072752893 -0.0099712089 0.42400002
0.073491499 -0.0099712089 0.42400002
0.074405178 -0.0099947257 0.42500001
0.075145528 -0.0099947257 0.42500001
0.076242991 -0.010041759 0.42700002
0.076986827 -0.010041759 0.42700002
0.046020158 -0.0096681006 0.44400004
0.046793606 -0.0096681006 0.44400004
0.047459923 -0.0096463254 0.44300002
0.048231628 -0.0096463254 0.44300002
0.048892718 -0.0096245511 0.44200003
0.049662679 -0.0096245511 0.44200003
0.050318543 -0.0096027758 0.44100001
0.050970923 -0.0095810005 0.44000003
0.051737402 -0.0095810005 0.44000003
0.052384555 -0.0095592253 0.43900001
0.052786086 -0.0094939005 0.43600002
0.053545598 -0.0094939005 0.43600002
0.054180559 -0.0094721252 0.43500003
0.054812033 -0.0094503509 0.43400002
0.055311989 -0.0094068004 0.43200001
0.055934753 -0.0093850251 0.43100002
0.056554034 -0.0093632508 0.43000001
0.057169832 -0.0093414756 0.42900002
0.057917148 -0.0093414756 0.42900002
0.058527719 -0.0093197003 0.42800003
0.059273295 -0.0093197003 0.42800003
0.05987864 -0.009297926 0.42700002
0.060338527 -0.0092543755 0.42500001
0.060935162 -0.0092326002 0.42400002
0.061528314 -0.0092108259 0.42300001
0.06226518 -0.0092108259 0.42300001
0.062853105 -0.0091890506 0.42200002
0.063437544 -0.0091672754 0.42100003
0.064170927 -0.0091672754 0.42100003
0.064750142 -0.0091455001 0.42000002
0.065481782 -0.0091455001 0.42000002
0.066213422 -0.0091455001 0.42000002
0.066945061 -0.0091455001 0.42000002
0.067676701 -0.0091455001 0.42000002
0.068571225 -0.0091672754 0.42100003
0.0693046 -0.0091672754 0.42100003
0.070204347 -0.0091890506 0.42200002
0.071275674 -0.0092326002 0.42400002
0.072014287 -0.0092326002 0.42400002
0.07292448 -0.0092543755 0.42500001
0.073664829 -0.0092543755 0.42500001
0.074755318 -0.009297926 0.42700002
0.075499155 -0.009297926 0.42700002
0.076242991 -0.009297926 0.42700002
0.076986827 -0.009297926 0.42700002
0.045348618 -0.0089146858 0.44500002
0.046123806 -0.0089146858 0.44500002
0.046793606 -0.0088946521 0.44400004
0.047567055 -0.0088946521 0.44400004
0.048231628 -0.0088746194 0.44300002
0.049003333 -0.0088746194 0.44300002
0.049662679 -0.0088545866 0.44200003
0.050432645 -0.0088545866 0.44200003
0.051086765 -0.0088345539 0.44100001
0.051737402 -0.0088145202 0.44000003
0.052384555 -0.0087944875 0.43900001
0.052786086 -0.0087343883 0.43600002
0.053545598 -0.0087343883 0.43600002
0.054180559 -0.0087143555 0.43500003
0.054812033 -0.0086943228 0.43400002
0.055568062 -0.0086943228 0.43400002
0.056064531 -0.0086542564 0.43200001
0.056554034 -0.0086141909 0.43000001
0.057303093 -0.0086141909 0.43000001
0.057917148 -0.0085941572 0.42900002
0.058664467 -0.0085941572 0.42900002
0.059273295 -0.0085741244 0.42800003
0.05987864 -0.0085540917 0.42700002
0.060338527 -0.0085140252 0.42500001
0.060935162 -0.0084939925 0.42400002
0.061673772 -0.0084939925 0.42400002
0.06226518 -0.0084739598 0.42300001
0.062853105 -0.0084539261 0.42200002
0.063588232 -0.0084539261 0.42200002
0.064170927 -0.0084338933 0.42100003
0.06490431 -0.0084338933 0.42100003
0.065637693 -0.0084338933 0.42100003
0.066213422 -0.0084138606 0.42000002
0.067104459 -0.0084338933 0.42100003
0.067837842 -0.0084338933 0.42100003
0.068734102 -0.0084539261 0.42200002
0.069469221 -0.0084539261 0.42200002
0.070537068 -0.0084939925 0.42400002
0.071275674 -0.0084939925 0.42400002
0.072184131 -0.0085140252 0.42500001
0.07292448 -0.0085140252 0.42500001
0.073664829 -0.0085140252 0.42500001
0.074755318 -0.0085540917 0.42700002
0.075499155 -0.0085540917 0.42700002
0.076242991 -0.0085540917 0.42700002
0.044573426 -0.0081394957 0.44500002
0.045348618 -0.0081394957 0.44500002
0.046123806 -0.0081394957 0.44500002
0.046898998 -0.0081394957 0.44500002
0.047674187 -0.0081394957 0.44500002
0.048340503 -0.0081212046 0.44400004
0.049003333 -0.0081029134 0.44300002
0.049775042 -0.0081029134 0.44300002
0.050432645 -0.0080846222 0.44200003
0.05120261 -0.0080846222 0.44200003
0.051737402 -0.0080480408 0.44000003
0.052503884 -0.0080480408 0.44000003
0.052907158 -0.0079931673 0.43700001
0.053545598 -0.0079748761 0.43600002
0.054180559 -0.0079565858 0.43500003
0.054938328 -0.0079565858 0.43500003
0.055568062 -0.0079382947 0.43400002
0.056064531 -0.0079017123 0.43200001
0.056554034 -0.0078651309 0.43000001
0.057303093 -0.0078651309 0.43000001
0.057917148 -0.0078468397 0.42900002
0.058664467 -0.0078468397 0.42900002
0.059273295 -0.0078285486 0.42800003
0.05987864 -0.0078102574 0.42700002
0.060480502 -0.0077919667 0.42600003
0.06107888 -0.0077736755 0.42500001
0.061673772 -0.0077553843 0.42400002
0.06226518 -0.0077370936 0.42300001
0.06300205 -0.0077370936 0.42300001
0.063588232 -0.0077188024 0.42200002
0.064170927 -0.0077005113 0.42100003
0.06490431 -0.0077005113 0.42100003
0.065637693 -0.0077005113 0.42100003
0.066371076 -0.0077005113 0.42100003
0.067104459 -0.0077005113 0.42100003
0.067837842 -0.0077005113 0.42100003
0.068734102 -0.0077188024 0.42200002
0.069469221 -0.0077188024 0.42200002
0.070537068 -0.0077553843 0.42400002
0.071443781 -0.0077736755 0.42500001
0.072184131 -0.0077736755 0.42500001
0.07292448 -0.0077736755 0.42500001
0.073664829 -0.0077736755 0.42500001
0.074755318 -0.0078102574 0.42700002
0.075499155 -0.0078102574 0.42700002
0.077671431 -0.0079565858 0.43500003
0.079004928 -0.0079382947 0.43400002
0.046123806 -0.0073643057 0.44500002
0.046898998 -0.0073643057 0.44500002
0.047674187 -0.0073643057 0.44500002
0.048340503 -0.0073477565 0.44400004
0.049113952 -0.0073477565 0.44400004
0.0498874 -0.0073477565 0.44400004
0.050432645 -0.0073146583 0.44200003
0.05120261 -0.0073146583 0.44200003
0.051854987 -0.0072981096 0.44100001
0.052503884 -0.0072815605 0.44000003
0.052907158 -0.0072319135 0.43700001
0.053545598 -0.0072153644 0.43600002
0.05430511 -0.0072153644 0.43600002
0.054938328 -0.0071988152 0.43500003
0.0556961 -0.0071988152 0.43500003
0.056324091 -0.0071822666 0.43400002
0.056685556 -0.0071326196 0.43100002
0.057303093 -0.0071160705 0.43000001
0.057917148 -0.0070995213 0.42900002
0.058664467 -0.0070995213 0.42900002
0.059273295 -0.0070829722 0.42800003
0.05987864 -0.0070664235 0.42700002
0.060622476 -0.0070664235 0.42700002
0.06107888 -0.0070333253 0.42500001
0.061673772 -0.0070167766 0.42400002
0.06226518 -0.0070002275 0.42300001
0.06300205 -0.0070002275 0.42300001
0.063588232 -0.0069836783 0.42200002
0.064323351 -0.0069836783 0.42200002
0.065058477 -0.0069836783 0.42200002
0.065637693 -0.0069671297 0.42100003
0.066528723 -0.0069836783 0.42200002
0.067263849 -0.0069836783 0.42200002
0.067998976 -0.0069836783 0.42200002
0.068896972 -0.0070002275 0.42300001
0.069633842 -0.0070002275 0.42300001
0.070537068 -0.0070167766 0.42400002
0.071443781 -0.0070333253 0.42500001
0.072184131 -0.0070333253 0.42500001
0.073096067 -0.0070498744 0.42600003
0.073838159 -0.0070498744 0.42600003
0.074580252 -0.0070498744 0.42600003
0.076736845 -0.0071822666 0.43400002
0.077671431 -0.0071988152 0.43500003
0.0784292 -0.0071988152 0.43500003
0.079004928 -0.0071822666 0.43400002
0.046227455 -0.0066039222 0.44600001
0.047004391 -0.0066039222 0.44600001
0.047674187 -0.0065891156 0.44500002
0.048449378 -0.0065891156 0.44500002
0.049224567 -0.0065891156 0.44500002
0.0498874 -0.0065743085 0.44400004
0.050546747 -0.0065595014 0.44300002
0.05120261 -0.0065446943 0.44200003
0.051854987 -0.0065298872 0.44100001
0.052503884 -0.0065150806 0.44000003
0.053028226 -0.0064854664 0.43800002
0.05366841 -0.0064706593 0.43700001
0.054429665 -0.0064706593 0.43700001
0.055064622 -0.0064558522 0.43600002
0.055824134 -0.0064558522 0.43600002
0.056453869 -0.0064410456 0.43500003
0.056948595 -0.0064114314 0.43300003
0.057303093 -0.0063670105 0.43000001
0.058052152 -0.0063670105 0.43000001
0.058664467 -0.0063522034 0.42900002
0.059411786 -0.0063522034 0.42900002
0.060018871 -0.0063373963 0.42800003
0.060622476 -0.0063225892 0.42700002
0.06107888 -0.0062929755 0.42500001
0.061673772 -0.0062781684 0.42400002
0.062412381 -0.0062781684 0.42400002
0.06300205 -0.0062633613 0.42300001
0.063738912 -0.0062633613 0.42300001
0.064323351 -0.0062485542 0.42200002
0.065058477 -0.0062485542 0.42200002
0.065793604 -0.0062485542 0.42200002
0.066528723 -0.0062485542 0.42200002
0.067263849 -0.0062485542 0.42200002
0.068160109 -0.0062633613 0.42300001
0.068896972 -0.0062633613 0.42300001
0.069633842 -0.0062633613 0.42300001
0.070703432 -0.0062929755 0.42500001
0.071443781 -0.0062929755 0.42500001
0.072523817 -0.0063225892 0.42700002
0.073267654 -0.0063225892 0.42700002
0.07401149 -0.0063225892 0.42700002
0.074755318 -0.0063225892 0.42700002
0.076736845 -0.0064262385 0.43400002
0.077492878 -0.0064262385 0.43400002
0.078248903 -0.0064262385 0.43400002
0.045552433 -0.0058400552 0.44700003
0.046227455 -0.0058269906 0.44600001
0.047004391 -0.0058269906 0.44600001
0.047781322 -0.0058269906 0.44600001
0.048449378 -0.0058139255 0.44500002
0.049224567 -0.0058139255 0.44500002
0.0498874 -0.0058008605 0.44400004
0.050546747 -0.0057877954 0.44300002
0.05120261 -0.0057747304 0.44200003
0.051972572 -0.0057747304 0.44200003
0.052503884 -0.0057486002 0.44000003
0.053149294 -0.0057355352 0.43900001
0.053791221 -0.0057224706 0.43800002
0.054429665 -0.0057094055 0.43700001
0.055064622 -0.0056963405 0.43600002
0.055824134 -0.0056963405 0.43600002
0.056453869 -0.0056832754 0.43500003
0.057080116 -0.0056702103 0.43400002
0.057569619 -0.0056440802 0.43200001
0.058052152 -0.0056179506 0.43000001
0.058801215 -0.0056179506 0.43000001
0.059411786 -0.0056048855 0.42900002
0.060018871 -0.0055918205 0.42800003
0.060622476 -0.0055787554 0.42700002
0.061222594 -0.0055656903 0.42600003
0.061673772 -0.0055395602 0.42400002
0.062412381 -0.0055395602 0.42400002
0.06300205 -0.0055264952 0.42300001
0.063738912 -0.0055264952 0.42300001
0.064323351 -0.0055134306 0.42200002
0.065058477 -0.0055134306 0.42200002
0.065793604 -0.0055134306 0.42200002
0.066686377 -0.0055264952 0.42300001
0.067423247 -0.0055264952 0.42300001
0.068160109 -0.0055264952 0.42300001
0.068896972 -0.0055264952 0.42300001
0.069798462 -0.0055395602 0.42400002
0.070703432 -0.0055526253 0.42500001
0.071443781 -0.0055526253 0.42500001
0.072523817 -0.0055787554 0.42700002
0.073267654 -0.0055787554 0.42700002
0.07401149 -0.0055787554 0.42700002
0.07563068 -0.0056440802 0.43200001
0.076736845 -0.0056702103 0.43400002
0.077492878 -0.0056702103 0.43400002
0.078248903 -0.0056702103 0.43400002
0.079004928 -0.0056702103 0.43400002
0.046331108 -0.0050613815 0.44700003
0.047004391 -0.0050500585 0.44600001
0.047781322 -0.0050500585 0.44600001
0.048558254 -0.0050500585 0.44600001
0.049224567 -0.0050387355 0.44500002
0.0498874 -0.0050274124 0.44400004
0.050660849 -0.0050274124 0.44400004
0.05120261 -0.0050047664 0.44200003
0.051972572 -0.0050047664 0.44200003
0.052623209 -0.0049934434 0.44100001
0.053149294 -0.0049707973 0.43900001
0.053791221 -0.0049594743 0.43800002
0.054429665 -0.0049481513 0.43700001
0.055064622 -0.0049368283 0.43600002
0.055824134 -0.0049368283 0.43600002
0.056453869 -0.0049255053 0.43500003
0.057080116 -0.0049141822 0.43400002
0.057702884 -0.0049028592 0.43300003
0.058322165 -0.0048915362 0.43200001
0.058801215 -0.0048688902 0.43000001
0.059550274 -0.0048688902 0.43000001
0.060159102 -0.0048575671 0.42900002
0.060764447 -0.0048462441 0.42800003
0.061366308 -0.0048349211 0.42700002
0.061819229 -0.0048122755 0.42500001
0.062412381 -0.0048009525 0.42400002
0.06300205 -0.0047896295 0.42300001
0.063738912 -0.0047896295 0.42300001
0.064475782 -0.0047896295 0.42300001
0.065212645 -0.0047896295 0.42300001
0.065949515 -0.0047896295 0.42300001
0.066686377 -0.0047896295 0.42300001
0.067423247 -0.0047896295 0.42300001
0.068160109 -0.0047896295 0.42300001
0.068896972 -0.0047896295 0.42300001
0.069798462 -0.0048009525 0.42400002
0.070869789 -0.0048235981 0.42600003
0.071779989 -0.0048349211 0.42700002
0.072523817 -0.0048349211 0.42700002
0.07343924 -0.0048462441 0.42800003
0.07418482 -0.0048462441 0.42800003
0.07563068 -0.0048915362 0.43200001
0.076560035 -0.0049028592 0.43300003
0.077492878 -0.0049141822 0.43400002
0.046331108 -0.0042827073 0.44700003
0.047109779 -0.0042827073 0.44700003
0.047888454 -0.0042827073 0.44700003
0.048558254 -0.0042731264 0.44600001
0.049335185 -0.0042731264 0.44600001
0.049999759 -0.0042635454 0.44500002
0.050660849 -0.0042539644 0.44400004
0.051318452 -0.0042443834 0.44300002
0.051972572 -0.0042348024 0.44200003
0.052503884 -0.0042156405 0.44000003
0.053149294 -0.004206059 0.43900001
0.053791221 -0.0041964781 0.43800002
0.054429665 -0.0041868971 0.43700001
0.055190917 -0.0041868971 0.43700001
0.055824134 -0.0041773161 0.43600002
0.056453869 -0.0041677351 0.43500003
0.057080116 -0.0041581541 0.43400002
0.057702884 -0.0041485731 0.43300003
0.058322165 -0.0041389922 0.43200001
0.058937959 -0.0041294112 0.43100002
0.059550274 -0.0041198302 0.43000001
0.060159102 -0.0041102492 0.42900002
0.060764447 -0.0041006682 0.42800003
0.061366308 -0.0040910873 0.42700002
0.061964687 -0.0040815063 0.42600003
0.062412381 -0.0040623443 0.42400002
0.063150987 -0.0040623443 0.42400002
0.063738912 -0.0040527633 0.42300001
0.064475782 -0.0040527633 0.42300001
0.065212645 -0.0040527633 0.42300001
0.065949515 -0.0040527633 0.42300001
0.066686377 -0.0040527633 0.42300001
0.067423247 -0.0040527633 0.42300001
0.068160109 -0.0040527633 0.42300001
0.069059849 -0.0040623443 0.42400002
0.069963083 -0.0040719253 0.42500001
0.071036153 -0.0040910873 0.42700002
0.071948089 -0.0041006682 0.42800003
0.072693661 -0.0041006682 0.42800003
0.073610827 -0.0041102492 0.42900002
0.074358143 -0.0041102492 0.42900002
0.07563068 -0.0041389922 0.43200001
0.076560035 -0.0041485731 0.43300003
0.047109779 -0.0035040332 0.44700003
0.047888454 -0.0035040332 0.44700003
0.048558254 -0.0034961943 0.44600001
0.049335185 -0.0034961943 0.44600001
0.049999759 -0.0034883553 0.44500002
0.050774947 -0.0034883553 0.44500002
0.051434293 -0.0034805161 0.44400004
0.051972572 -0.0034648383 0.44200003
0.052623209 -0.0034569993 0.44100001
0.053149294 -0.0034413212 0.43900001
0.053914033 -0.0034413212 0.43900001
0.054554217 -0.0034334823 0.43800002
0.055190917 -0.0034256433 0.43700001
0.055952173 -0.0034256433 0.43700001
0.056583647 -0.0034178041 0.43600002
0.057211637 -0.0034099652 0.43500003
0.057836145 -0.0034021263 0.43400002
0.058322165 -0.0033864481 0.43200001
0.058937959 -0.0033786092 0.43100002
0.059550274 -0.0033707703 0.43000001
0.060299333 -0.0033707703 0.43000001
0.060906421 -0.0033629313 0.42900002
0.061510023 -0.0033550921 0.42800003
0.062110145 -0.0033472532 0.42700002
0.062559582 -0.0033315753 0.42500001
0.063150987 -0.0033237361 0.42400002
0.063889593 -0.0033237361 0.42400002
0.064475782 -0.0033158972 0.42300001
0.065212645 -0.0033158972 0.42300001
0.065949515 -0.0033158972 0.42300001
0.066686377 -0.0033158972 0.42300001
0.067423247 -0.0033158972 0.42300001
0.068321243 -0.0033237361 0.42400002
0.069222726 -0.0033315753 0.42500001
0.070292316 -0.0033472532 0.42700002
0.071202509 -0.0033550921 0.42800003
0.072116189 -0.0033629313 0.42900002
0.072863512 -0.0033629313 0.42900002
0.073782414 -0.0033707703 0.43000001
0.074704804 -0.0033786092 0.43100002
0.07563068 -0.0033864481 0.43200001
0.076383218 -0.0033864481 0.43200001
0.047215171 -0.0027314562 0.44800001
0.047995586 -0.0027314562 0.44800001
0.048667129 -0.0027253593 0.44700003
0.049335185 -0.0027192621 0.44600001
0.050112117 -0.0027192621 0.44600001
0.050774947 -0.0027131652 0.44500002
0.051434293 -0.0027070681 0.44400004
0.051972572 -0.0026948741 0.44200003
0.052623209 -0.0026887772 0.44100001
0.053149294 -0.0026765831 0.43900001
0.053914033 -0.0026765831 0.43900001
0.054554217 -0.0026704862 0.43800002
0.055317212 -0.0026704862 0.43800002
0.055952173 -0.0026643891 0.43700001
0.056583647 -0.0026582922 0.43600002
0.057343159 -0.0026582922 0.43600002
0.057836145 -0.0026460981 0.43400002
0.05845717 -0.0026400012 0.43300003
0.059074707 -0.0026339041 0.43200001
0.059688762 -0.0026278072 0.43100002
0.060299333 -0.0026217101 0.43000001
0.061048392 -0.0026217101 0.43000001
0.061653741 -0.0026156132 0.42900002
0.062110145 -0.0026034191 0.42700002
0.062559582 -0.0025912251 0.42500001
0.063299932 -0.0025912251 0.42500001
0.063889593 -0.0025851282 0.42400002
0.064628206 -0.0025851282 0.42400002
0.065366812 -0.0025851282 0.42400002
0.066105418 -0.0025851282 0.42400002
0.066844031 -0.0025851282 0.42400002
0.067582637 -0.0025851282 0.42400002
0.068965785 -0.0026095163 0.42800003
0.06954848 -0.0026034191 0.42700002
0.070456937 -0.0026095163 0.42800003
0.071368873 -0.0026156132 0.42900002
0.072284296 -0.0026217101 0.43000001
0.073033355 -0.0026217101 0.43000001
0.073954001 -0.0026278072 0.43100002
0.074704804 -0.0026278072 0.43100002
0.07563068 -0.0026339041 0.43200001
0.076383218 -0.0026339041 0.43200001
0.047320563 -0.0019553951 0.44900003
0.047995586 -0.0019510401 0.44800001
0.048776004 -0.0019510401 0.44800001
0.0494458 -0.0019466851 0.44700003
0.050112117 -0.0019423302 0.44600001
0.050889049 -0.0019423302 0.44600001
0.051550139 -0.0019379752 0.44500002
0.052090157 -0.0019292651 0.44300002
0.052623209 -0.0019205551 0.44100001
0.053270362 -0.0019162002 0.44000003
0.053914033 -0.0019118452 0.43900001
0.054678772 -0.0019118452 0.43900001
0.055317212 -0.0019074901 0.43800002
0.055952173 -0.0019031351 0.43700001
0.056583647 -0.0018987801 0.43600002
0.057343159 -0.0018987801 0.43600002
0.05796941 -0.0018944251 0.43500003
0.058592174 -0.0018900702 0.43400002
0.059074707 -0.0018813601 0.43200001
0.059688762 -0.0018770051 0.43100002
0.060299333 -0.0018726501 0.43000001
0.061048392 -0.0018726501 0.43000001
0.061653741 -0.0018682951 0.42900002
0.062255599 -0.0018639402 0.42800003
0.062706776 -0.0018552301 0.42600003
0.063299932 -0.0018508751 0.42500001
0.064040281 -0.0018508751 0.42500001
0.06478063 -0.0018508751 0.42500001
0.065520979 -0.0018508751 0.42500001
0.066261329 -0.0018508751 0.42500001
0.067001678 -0.0018508751 0.42500001
0.067742027 -0.0018508751 0.42500001
0.068965785 -0.0018639402 0.42800003
0.069711357 -0.0018639402 0.42800003
0.070621558 -0.0018682951 0.42900002
0.071535237 -0.0018726501 0.43000001
0.072284296 -0.0018726501 0.43000001
0.073203199 -0.0018770051 0.43100002
0.073954001 -0.0018770051 0.43100002
0.074704804 -0.0018770051 0.43100002
0.07563068 -0.0018813601 0.43200001
0.076383218 -0.0018813601 0.43200001
0.047320563 -0.0011732371 0.44900003
0.048102722 -0.0011732371 0.44900003
0.048776004 -0.001170624 0.44800001
0.049556419 -0.001170624 0.44800001
0.050224476 -0.0011680111 0.44700003
0.050889049 -0.001165398 0.44600001
0.051550139 -0.0011627851 0.44500002
0.052207742 -0.001160172 0.44400004
0.052742537 -0.001154946 0.44200003
0.053391431 -0.0011523331 0.44100001
0.053914033 -0.0011471071 0.43900001
0.054678772 -0.0011471071 0.43900001
0.055317212 -0.001144494 0.43800002
0.055952173 -0.0011418811 0.43700001
0.056713428 -0.0011418811 0.43700001
0.057343159 -0.001139268 0.43600002
0.05796941 -0.0011366551 0.43500003
0.058592174 -0.001134042 0.43400002
0.059074707 -0.001128816 0.43200001
0.059688762 -0.0011262031 0.43100002
0.060439564 -0.0011262031 0.43100002
0.061048392 -0.00112359 0.43000001
0.061797455 -0.00112359 0.43000001
0.062401056 -0.0011209771 0.42900002
0.062853977 -0.0011157511 0.42700002
0.063597813 -0.0011157511 0.42700002
0.064190961 -0.001113138 0.42600003
0.06478063 -0.0011105251 0.42500001
0.065520979 -0.0011105251 0.42500001
0.066261329 -0.0011105251 0.42500001
0.067001678 -0.0011105251 0.42500001
0.068060815 -0.0011157511 0.42700002
0.068965785 -0.001118364 0.42800003
0.069874234 -0.0011209771 0.42900002
0.070786178 -0.00112359 0.43000001
0.071535237 -0.00112359 0.43000001
0.072452396 -0.0011262031 0.43100002
0.073203199 -0.0011262031 0.43100002
0.073954001 -0.0011262031 0.43100002
0.074878134 -0.001128816 0.43200001
0.07563068 -0.001128816 0.43200001
0.076383218 -0.001128816 0.43200001
0.077135764 -0.001128816 0.43200001
0.047320563 -0.00039107903 0.44900003
0.048102722 -0.00039107903 0.44900003
0.04888488 -0.00039107903 0.44900003
0.049556419 -0.00039020804 0.44800001
0.050336834 -0.00039020804 0.44800001
0.051003151 -0.00038933702 0.44700003
0.05166598 -0.00038846603 0.44600001
0.052325327 -0.00038759504 0.44500002
0.052861866 -0.00038585303 0.44300002
0.053512502 -0.00038498204 0.44200003
0.054282464 -0.00038498204 0.44200003
0.054678772 -0.00038236903 0.43900001
0.055443507 -0.00038236903 0.43900001
0.056080211 -0.00038149802 0.43800002
0.056713428 -0.00038062703 0.43700001
0.05747468 -0.00038062703 0.43700001
0.05796941 -0.00037888502 0.43500003
0.058592174 -0.00037801403 0.43400002
0.059074707 -0.00037627202 0.43200001
0.059827253 -0.00037627202 0.43200001
0.060439564 -0.00037540102 0.43100002
0.061190367 -0.00037540102 0.43100002
0.061797455 -0.00037453003 0.43000001
0.062401056 -0.00037365902 0.42900002
0.063001178 -0.00037278802 0.42800003
0.063597813 -0.00037191703 0.42700002
0.064341642 -0.00037191703 0.42700002
0.064933054 -0.00037104602 0.42600003
0.065675147 -0.00037104602 0.42600003
0.06641724 -0.00037104602 0.42600003
0.067316979 -0.00037191703 0.42700002
0.068220206 -0.00037278802 0.42800003
0.069126919 -0.00037365902 0.42900002
0.070037112 -0.00037453003 0.43000001
0.070950791 -0.00037540102 0.43100002
0.071701594 -0.00037540102 0.43100002
0.072452396 -0.00037540102 0.43100002
0.073203199 -0.00037540102 0.43100002
0.073954001 -0.00037540102 0.43100002
0.074878134 -0.00037627202 0.43200001
0.07563068 -0.00037627202 0.43200001
0.076383218 -0.00037627202 0.43200001
0.077135764 -0.00037627202 0.43200001
0.047425952 0.00039195002 0.45000002
0.048102722 0.00039107903 0.44900003
0.04888488 0.00039107903 0.44900003
0.049667034 0.00039107903 0.44900003
0.050336834 0.00039020804 0.44800001
0.051003151 0.00038933702 0.44700003
0.05166598 0.00038846603 0.44600001
0.052325327 0.00038759504 0.44500002
0.05298119 0.00038672402 0.44400004
0.053633571 0.00038585303 0.44300002
0.054282464 0.00038498204 0.44200003
0.054803323 0.00038324003 0.44000003
0.055443507 0.00038236903 0.43900001
0.056080211 0.00038149802 0.43800002
0.056713428 0.00038062703 0.43700001
0.05747468 0.00038062703 0.43700001
0.058102671 0.00037975603 0.43600002
0.058592174 0.00037801403 0.43400002
0.059074707 0.00037627202 0.43200001
0.059827253 0.00037627202 0.43200001
0.060439564 0.00037540102 0.43100002
0.061190367 0.00037540102 0.43100002
0.061941169 0.00037540102 0.43100002
0.062546514 0.00037453003 0.43000001
0.063148372 0.00037365902 0.42900002
0.063597813 0.00037191703 0.42700002
0.064341642 0.00037191703 0.42700002
0.065085478 0.00037191703 0.42700002
0.065829314 0.00037191703 0.42700002
0.06657315 0.00037191703 0.42700002
0.067316979 0.00037191703 0.42700002
0.068220206 0.00037278802 0.42800003
0.069288053 0.00037453003 0.43000001
0.070199989 0.00037540102 0.43100002
0.070950791 0.00037540102 0.43100002
0.071701594 0.00037540102 0.43100002
0.072452396 0.00037540102 0.43100002
0.073203199 0.00037540102 0.43100002
0.074125588 0.00037627202 0.43200001
0.074878134 0.00037627202 0.43200001
0.07563068 0.00037627202 0.43200001
0.076383218 0.00037627202 0.43200001
0.047425952 0.00117585 0.45000002
0.048102722 0.0011732371 0.44900003
0.048993751 0.00117585 0.45000002
0.049667034 0.0011732371 0.44900003
0.050336834 0.001170624 0.44800001
0.051117253 0.001170624 0.44800001
0.05166598 0.001165398 0.44600001
0.052442912 0.001165398 0.44600001
0.053100519 0.0011627851 0.44500002
0.053754639 0.001160172 0.44400004
0.054405276 0.0011575591 0.44300002
0.054927878 0.0011523331 0.44100001
0.055443507 0.0011471071 0.43900001
0.056208245 0.0011471071 0.43900001
0.056843206 0.001144494 0.43800002
0.05747468 0.0011418811 0.43700001
0.058102671 0.001139268 0.43600002
0.058727179 0.0011366551 0.43500003
0.059074707 0.001128816 0.43200001
0.059827253 0.001128816 0.43200001
0.060439564 0.0011262031 0.43100002
0.061190367 0.0011262031 0.43100002
0.061941169 0.0011262031 0.43100002
0.062546514 0.00112359 0.43000001
0.063148372 0.0011209771 0.42900002
0.06374675 0.001118364 0.42800003
0.064341642 0.0011157511 0.42700002
0.065085478 0.0011157511 0.42700002
0.065829314 0.0011157511 0.42700002
0.06657315 0.0011157511 0.42700002
0.067474633 0.001118364 0.42800003
0.068379603 0.0011209771 0.42900002
0.069288053 0.00112359 0.43000001
0.070199989 0.0011262031 0.43100002
0.070950791 0.0011262031 0.43100002
0.071701594 0.0011262031 0.43100002
0.072452396 0.0011262031 0.43100002
0.073373042 0.001128816 0.43200001
0.074125588 0.001128816 0.43200001
0.074878134 0.001128816 0.43200001
0.07563068 0.001128816 0.43200001
0.047425952 0.0019597502 0.45000002
0.048209853 0.0019597502 0.45000002
0.048993751 0.0019597502 0.45000002
0.049667034 0.0019553951 0.44900003
0.050449193 0.0019553951 0.44900003
0.051003151 0.0019466851 0.44700003
0.05166598 0.0019423302 0.44600001
0.052442912 0.0019423302 0.44600001
0.053100519 0.0019379752 0.44500002
0.053754639 0.0019336201 0.44400004
0.054405276 0.0019292651 0.44300002
0.054927878 0.0019205551 0.44100001
0.055569805 0.0019162002 0.44000003
0.056208245 0.0019118452 0.43900001
0.056843206 0.0019074901 0.43800002
0.05747468 0.0019031351 0.43700001
0.058235936 0.0019031351 0.43700001
0.058862183 0.0018987801 0.43600002
0.059348203 0.0018900702 0.43400002
0.059827253 0.0018813601 0.43200001
0.060579795 0.0018813601 0.43200001
0.061332341 0.0018813601 0.43200001
0.061941169 0.0018770051 0.43100002
0.062691972 0.0018770051 0.43100002
0.063295573 0.0018726501 0.43000001
0.063895695 0.0018682951 0.42900002
0.06449233 0.0018639402 0.42800003
0.065237902 0.0018639402 0.42800003
0.065983482 0.0018639402 0.42800003
0.066729054 0.0018639402 0.42800003
0.067474633 0.0018639402 0.42800003
0.068379603 0.0018682951 0.42900002
0.069288053 0.0018726501 0.43000001
0.070199989 0.0018770051 0.43100002
0.070950791 0.0018770051 0.43100002
0.071701594 0.0018770051 0.43100002
0.072620504 0.0018813601 0.43200001
0.073373042 0.0018813601 0.43200001
0.074125588 0.0018813601 0.43200001
0.074878134 0.0018813601 0.43200001
0.075805746 0.0018857152 0.43300003
0.046745703 0.0027497471 0.45100003
0.047531344 0.0027497471 0.45100003
0.048316985 0.0027497471 0.45100003
0.049102627 0.0027497471 0.45100003
0.049777653 0.0027436502 0.45000002
0.050561555 0.0027436502 0.45000002
0.051003151 0.0027253593 0.44700003
0.05166598 0.0027192621 0.44600001
0.052442912 0.0027192621 0.44600001
0.053100519 0.0027131652 0.44500002
0.053754639 0.0027070681 0.44400004
0.054528087 0.0027070681 0.44400004
0.055052429 0.0026948741 0.44200003
0.0556961 0.0026887772 0.44100001
0.056336284 0.0026826803 0.44000003
0.056972984 0.0026765831 0.43900001
0.05747468 0.0026643891 0.43700001
0.058235936 0.0026643891 0.43700001
0.058862183 0.0026582922 0.43600002
0.059348203 0.0026460981 0.43400002
0.060104229 0.0026460981 0.43400002
0.060579795 0.0026339041 0.43200001
0.061332341 0.0026339041 0.43200001
0.061941169 0.0026278072 0.43100002
0.062691972 0.0026278072 0.43100002
0.063295573 0.0026217101 0.43000001
0.064044632 0.0026217101 0.43000001
0.06464301 0.0026156132 0.42900002
0.065390326 0.0026156132 0.42900002
0.065983482 0.0026095163 0.42800003
0.066884965 0.0026156132 0.42900002
0.06763228 0.0026156132 0.42900002
0.068538994 0.0026217101 0.43000001
0.069288053 0.0026217101 0.43000001
0.070199989 0.0026278072 0.43100002
0.070950791 0.0026278072 0.43100002
0.071701594 0.0026278072 0.43100002
0.072620504 0.0026339041 0.43200001
0.073373042 0.0026339041 0.43200001
0.074125588 0.0026339041 0.43200001
0.075051464 0.0026400012 0.43300003
0.07598082 0.0026460981 0.43400002
0.049102627 0.0035353892 0.45100003
0.049888272 0.0035353892 0.45100003
0.050561555 0.0035275503 0.45000002
0.051231351 0.0035197113 0.44900003
0.051897667 0.0035118721 0.44800001
0.052442912 0.0034961943 0.44600001
0.053100519 0.0034883553 0.44500002
0.053875707 0.0034883553 0.44500002
0.054528087 0.0034805161 0.44400004
0.055052429 0.0034648383 0.44200003
0.0556961 0.0034569993 0.44100001
0.056336284 0.0034491601 0.44000003
0.056972984 0.0034413212 0.43900001
0.057606202 0.0034334823 0.43800002
0.058235936 0.0034256433 0.43700001
0.058862183 0.0034178041 0.43600002
0.059484947 0.0034099652 0.43500003
0.060104229 0.0034021263 0.43400002
0.060720026 0.0033942873 0.43300003
0.061332341 0.0033864481 0.43200001
0.062084883 0.0033864481 0.43200001
0.062691972 0.0033786092 0.43100002
0.063442774 0.0033786092 0.43100002
0.064044632 0.0033707703 0.43000001
0.064793691 0.0033707703 0.43000001
0.065390326 0.0033629313 0.42900002
0.066137649 0.0033629313 0.42900002
0.066884965 0.0033629313 0.42900002
0.067789935 0.0033707703 0.43000001
0.068538994 0.0033707703 0.43000001
0.069449186 0.0033786092 0.43100002
0.070199989 0.0033786092 0.43100002
0.070950791 0.0033786092 0.43100002
0.071867958 0.0033864481 0.43200001
0.072620504 0.0033864481 0.43200001
0.073373042 0.0033864481 0.43200001
0.074468762 0.0034021263 0.43400002
0.075224787 0.0034021263 0.43400002
0.076155886 0.0034099652 0.43500003
0.048424117 0.0043306123 0.45200002
0.049211502 0.0043306123 0.45200002
0.049888272 0.0043210313 0.45100003
0.050673913 0.0043210313 0.45100003
0.051231351 0.0043018693 0.44900003
0.051897667 0.0042922883 0.44800001
0.052442912 0.0042731264 0.44600001
0.053219844 0.0042731264 0.44600001
0.053875707 0.0042635454 0.44500002
0.054528087 0.0042539644 0.44400004
0.055176981 0.0042443834 0.44300002
0.0556961 0.0042252215 0.44100001
0.056464322 0.0042252215 0.44100001
0.056972984 0.004206059 0.43900001
0.057737723 0.004206059 0.43900001
0.058235936 0.0041868971 0.43700001
0.058862183 0.0041773161 0.43600002
0.059484947 0.0041677351 0.43500003
0.06024272 0.0041677351 0.43500003
0.060860258 0.0041581541 0.43400002
0.061474312 0.0041485731 0.43300003
0.062084883 0.0041389922 0.43200001
0.062691972 0.0041294112 0.43100002
0.063442774 0.0041294112 0.43100002
0.064044632 0.0041198302 0.43000001
0.064793691 0.0041198302 0.43000001
0.065542758 0.0041198302 0.43000001
0.066291817 0.0041198302 0.43000001
0.067040876 0.0041198302 0.43000001
0.067789935 0.0041198302 0.43000001
0.068538994 0.0041198302 0.43000001
0.069449186 0.0041294112 0.43100002
0.070362866 0.0041389922 0.43200001
0.071115412 0.0041389922 0.43200001
0.071867958 0.0041389922 0.43200001
0.072788604 0.0041485731 0.43300003
0.073542893 0.0041485731 0.43300003
0.074468762 0.0041581541 0.43400002
0.075398117 0.0041677351 0.43500003
0.076155886 0.0041677351 0.43500003
0.076913662 0.0041677351 0.43500003
0.050673913 0.0051066731 0.45100003
0.051459555 0.0051066731 0.45100003
0.052013509 0.0050840275 0.44900003
0.052442912 0.0050500585 0.44600001
0.053219844 0.0050500585 0.44600001
0.053875707 0.0050387355 0.44500002
0.054528087 0.0050274124 0.44400004
0.055301536 0.0050274124 0.44400004
0.055822395 0.0050047664 0.44200003
0.056464322 0.0049934434 0.44100001
0.057102762 0.0049821204 0.44000003
0.057737723 0.0049707973 0.43900001
0.058369197 0.0049594743 0.43800002
0.058862183 0.0049368283 0.43600002
0.059484947 0.0049255053 0.43500003
0.06024272 0.0049255053 0.43500003
0.060860258 0.0049141822 0.43400002
0.061474312 0.0049028592 0.43300003
0.062084883 0.0048915362 0.43200001
0.062837429 0.0048915362 0.43200001
0.063442774 0.0048802132 0.43100002
0.064044632 0.0048688902 0.43000001
0.064793691 0.0048688902 0.43000001
0.065542758 0.0048688902 0.43000001
0.066291817 0.0048688902 0.43000001
0.067040876 0.0048688902 0.43000001
0.067789935 0.0048688902 0.43000001
0.068698384 0.0048802132 0.43100002
0.069449186 0.0048802132 0.43100002
0.070362866 0.0048915362 0.43200001
0.071115412 0.0048915362 0.43200001
0.072034314 0.0049028592 0.43300003
0.073124811 0.0049255053 0.43500003
0.07388258 0.0049255053 0.43500003
0.074640349 0.0049255053 0.43500003
0.075398117 0.0049255053 0.43500003
0.07633096 0.0049368283 0.43600002
0.077090472 0.0049368283 0.43600002
0.052013509 0.0058661853 0.44900003
0.052795667 0.0058661853 0.44900003
0.053219844 0.0058269906 0.44600001
0.053875707 0.0058139255 0.44500002
0.054650899 0.0058139255 0.44500002
0.055301536 0.0058008605 0.44400004
0.05594869 0.0057877954 0.44300002
0.056592356 0.0057747304 0.44200003
0.057102762 0.0057486002 0.44000003
0.057737723 0.0057355352 0.43900001
0.058369197 0.0057224706 0.43800002
0.058862183 0.0056963405 0.43600002
0.059484947 0.0056832754 0.43500003
0.06024272 0.0056832754 0.43500003
0.060860258 0.0056702103 0.43400002
0.061616287 0.0056702103 0.43400002
0.062228598 0.0056571453 0.43300003
0.062837429 0.0056440802 0.43200001
0.063589975 0.0056440802 0.43200001
0.064193577 0.0056310152 0.43100002
0.064793691 0.0056179506 0.43000001
0.065542758 0.0056179506 0.43000001
0.066291817 0.0056179506 0.43000001
0.067040876 0.0056179506 0.43000001
0.067947589 0.0056310152 0.43100002
0.068698384 0.0056310152 0.43100002
0.069449186 0.0056310152 0.43100002
0.070362866 0.0056440802 0.43200001
0.071280032 0.0056571453 0.43300003
0.072367042 0.0056832754 0.43500003
0.073124811 0.0056832754 0.43500003
0.074052423 0.0056963405 0.43600002
0.074811935 0.0056963405 0.43600002
0.075571448 0.0056963405 0.43600002
0.07633096 0.0056963405 0.43600002
0.077090472 0.0056963405 0.43600002
0.052795667 0.0066483435 0.44900003
0.053219844 0.0066039222 0.44600001
0.053875707 0.0065891156 0.44500002
0.054650899 0.0065891156 0.44500002
0.055426087 0.0065891156 0.44500002
0.056074984 0.0065743085 0.44400004
0.056592356 0.0065446943 0.44200003
0.057232544 0.0065298872 0.44100001
0.057869244 0.0065150806 0.44000003
0.058369197 0.0064854664 0.43800002
0.058862183 0.0064558522 0.43600002
0.059621695 0.0064558522 0.43600002
0.06024272 0.0064410456 0.43500003
0.061000489 0.0064410456 0.43500003
0.061616287 0.0064262385 0.43400002
0.062372316 0.0064262385 0.43400002
0.062982887 0.0064114314 0.43300003
0.063589975 0.0063966243 0.43200001
0.064193577 0.0063818176 0.43100002
0.064944379 0.0063818176 0.43100002
0.065695181 0.0063818176 0.43100002
0.066445984 0.0063818176 0.43100002
0.067196786 0.0063818176 0.43100002
0.067947589 0.0063818176 0.43100002
0.068698384 0.0063818176 0.43100002
0.069610327 0.0063966243 0.43200001
0.07068862 0.0064262385 0.43400002
0.071444653 0.0064262385 0.43400002
0.072367042 0.0064410456 0.43500003
0.073292911 0.0064558522 0.43600002
0.074052423 0.0064558522 0.43600002
0.074640349 0.0064410456 0.43500003
0.075398117 0.0064410456 0.43500003
0.076155886 0.0064410456 0.43500003
0.076913662 0.0064410456 0.43500003
0.053458501 0.0074139526 0.44800001
0.053996779 0.0073808543 0.44600001
0.054650899 0.0073643057 0.44500002
0.055426087 0.0073643057 0.44500002
0.056074984 0.0073477565 0.44400004
0.056720395 0.0073312074 0.44300002
0.057362322 0.0073146583 0.44200003
0.057869244 0.0072815605 0.44000003
0.058502462 0.0072650113 0.43900001
0.058862183 0.0072153644 0.43600002
0.059621695 0.0072153644 0.43600002
0.06024272 0.0071988152 0.43500003
0.061000489 0.0071988152 0.43500003
0.061616287 0.0071822666 0.43400002
0.062372316 0.0071822666 0.43400002
0.062982887 0.0071657174 0.43300003
0.063589975 0.0071491683 0.43200001
0.064342514 0.0071491683 0.43200001
0.064944379 0.0071326196 0.43100002
0.065695181 0.0071326196 0.43100002
0.066445984 0.0071326196 0.43100002
0.067196786 0.0071326196 0.43100002
0.068105236 0.0071491683 0.43200001
0.068857782 0.0071491683 0.43200001
0.069932595 0.0071822666 0.43400002
0.07068862 0.0071822666 0.43400002
0.071609266 0.0071988152 0.43500003
0.072533399 0.0072153644 0.43600002
0.073292911 0.0072153644 0.43600002
0.074222267 0.0072319135 0.43700001
0.074983522 0.0072319135 0.43700001
0.076264761 0.0072815605 0.44000003
0.077031247 0.0072815605 0.44000003
0.054117847 0.0081760772 0.44700003
0.054773711 0.0081577869 0.44600001
0.055426087 0.0081394957 0.44500002
0.056074984 0.0081212046 0.44400004
0.056848433 0.0081212046 0.44400004
0.057362322 0.0080846222 0.44200003
0.058000766 0.008066332 0.44100001
0.058768988 0.008066332 0.44100001
0.058862183 0.0079748761 0.43600002
0.059621695 0.0079748761 0.43600002
0.06024272 0.0079565858 0.43500003
0.061000489 0.0079565858 0.43500003
0.061616287 0.0079382947 0.43400002
0.062372316 0.0079382947 0.43400002
0.063128345 0.0079382947 0.43400002
0.063737169 0.0079200035 0.43300003
0.064342514 0.0079017123 0.43200001
0.06509506 0.0079017123 0.43200001
0.065695181 0.0078834211 0.43100002
0.066445984 0.0078834211 0.43100002
0.06735269 0.0079017123 0.43200001
0.06826289 0.0079200035 0.43300003
0.06917657 0.0079382947 0.43400002
0.070093729 0.0079565858 0.43500003
0.070851497 0.0079565858 0.43500003
0.071938507 0.0079931673 0.43700001
0.073032483 0.0080297496 0.43900001
0.074133426 0.008066332 0.44100001
0.074901648 0.008066332 0.44100001
0.075498283 0.0080480408 0.44000003
0.076264761 0.0080480408 0.44000003
0.077031247 0.0080480408 0.44000003
0.054773711 0.0089347186 0.44600001
0.055550642 0.0089347186 0.44600001
0.056201279 0.0089146858 0.44500002
0.056848433 0.0088946521 0.44400004
0.0574921 0.0088746194 0.44300002
0.058132287 0.0088545866 0.44200003
0.058902249 0.0088545866 0.44200003
0.05953721 0.0088345539 0.44100001
0.059621695 0.0087343883 0.43600002
0.060381208 0.0087343883 0.43600002
0.06114072 0.0087343883 0.43600002
0.061758257 0.0087143555 0.43500003
0.062372316 0.0086943228 0.43400002
0.063128345 0.0086943228 0.43400002
0.063737169 0.0086742891 0.43300003
0.064491458 0.0086742891 0.43300003
0.06509506 0.0086542564 0.43200001
0.065847605 0.0086542564 0.43200001
0.066600151 0.0086542564 0.43200001
0.067508601 0.0086742891 0.43300003
0.068420537 0.0086943228 0.43400002
0.06917657 0.0086943228 0.43400002
0.070254862 0.0087343883 0.43600002
0.071014374 0.0087343883 0.43600002
0.072103128 0.0087744547 0.43800002
0.073032483 0.0087944875 0.43900001
0.073965326 0.0088145202 0.44000003
0.074731804 0.0088145202 0.44000003
0.075498283 0.0088145202 0.44000003
0.076264761 0.0088145202 0.44000003
0.077031247 0.0088145202 0.44000003
0.056201279 0.0096898759 0.44500002
0.056848433 0.0096681006 0.44400004
0.057621881 0.0096681006 0.44400004
0.058132287 0.0096245511 0.44200003
0.058902249 0.0096245511 0.44200003
0.05953721 0.0096027758 0.44100001
0.060305431 0.0096027758 0.44100001
0.060519695 0.0095156757 0.43700001
0.06114072 0.0094939005 0.43600002
0.061758257 0.0094721252 0.43500003
0.062516026 0.0094721252 0.43500003
0.063128345 0.0094503509 0.43400002
0.06388437 0.0094503509 0.43400002
0.064640395 0.0094503509 0.43400002
0.065396428 0.0094503509 0.43400002
0.066000029 0.0094285756 0.43300003
0.066908479 0.0094503509 0.43400002
0.067664512 0.0094503509 0.43400002
0.068578191 0.0094721252 0.43500003
0.06933596 0.0094721252 0.43500003
0.070254862 0.0094939005 0.43600002
0.071014374 0.0094939005 0.43600002
0.072103128 0.009537451 0.43800002
0.073032483 0.0095592253 0.43900001
0.073965326 0.0095810005 0.44000003
0.074731804 0.0095810005 0.44000003
0.075498283 0.0095810005 0.44000003
0.076264761 0.0095810005 0.44000003
0.077031247 0.0095810005 0.44000003
0.056848433 0.010441548 0.44400004
0.0574921 0.010418031 0.44300002
0.058132287 0.010394515 0.44200003
0.058902249 0.010394515 0.44200003
0.05953721 0.010370998 0.44100001
0.060031936 0.010323964 0.43900001
0.060658187 0.010300446 0.43800002
0.061280951 0.010276929 0.43700001
0.061900232 0.010253413 0.43600002
0.062516026 0.010229896 0.43500003
0.063273802 0.010229896 0.43500003
0.06388437 0.010206379 0.43400002
0.064640395 0.010206379 0.43400002
0.065396428 0.010206379 0.43400002
0.066152453 0.010206379 0.43400002
0.066908479 0.010206379 0.43400002
0.067664512 0.010206379 0.43400002
0.068578191 0.010229896 0.43500003
0.06949535 0.010253413 0.43600002
0.070415996 0.010276929 0.43700001
0.071340129 0.010300446 0.43800002
0.072267748 0.010323964 0.43900001
0.073198847 0.010347481 0.44000003
0.073965326 0.010347481 0.44000003
0.074731804 0.010347481 0.44000003
0.075498283 0.010347481 0.44000003
0.076264761 0.010347481 0.44000003
0.077031247 0.010347481 0.44000003
0.058263808 0.011189737 0.44300002
0.058902249 0.011164479 0.44200003
0.059672214 0.011164479 0.44200003
0.060168684 0.01111396 0.44000003
0.060796674 0.011088702 0.43900001
0.061280951 0.011038183 0.43700001
0.061900232 0.011012925 0.43600002
0.062516026 0.010987666 0.43500003
0.063273802 0.010987666 0.43500003
0.06388437 0.010962407 0.43400002
0.064640395 0.010962407 0.43400002
0.065396428 0.010962407 0.43400002
0.066152453 0.010962407 0.43400002
0.066908479 0.010962407 0.43400002
0.067820422 0.010987666 0.43500003
0.068735838 0.011012925 0.43600002
0.069654748 0.011038183 0.43700001
0.070577137 0.011063443 0.43800002
0.071503006 0.011088702 0.43900001
0.072432362 0.01111396 0.44000003
0.073198847 0.01111396 0.44000003
0.073965326 0.01111396 0.44000003
0.074731804 0.01111396 0.44000003
0.075498283 0.01111396 0.44000003
0.076264761 0.01111396 0.44000003
0.077031247 0.01111396 0.44000003
0.05953721 0.011907442 0.44100001
0.060168684 0.011880441 0.44000003
0.060796674 0.01185344 0.43900001
0.061421182 0.011826439 0.43800002
0.062042207 0.011799438 0.43700001
0.06265974 0.011772437 0.43600002
0.063273802 0.011745436 0.43500003
0.064031571 0.011745436 0.43500003
0.06478934 0.011745436 0.43500003
0.065396428 0.011718434 0.43400002
0.066304877 0.011745436 0.43500003
0.067062646 0.011745436 0.43500003
0.067820422 0.011745436 0.43500003
0.068735838 0.011772437 0.43600002
0.069814138 0.011826439 0.43800002
0.070738271 0.01185344 0.43900001
0.071665883 0.011880441 0.44000003
0.072432362 0.011880441 0.44000003
0.073198847 0.011880441 0.44000003
0.073965326 0.011880441 0.44000003
0.074731804 0.011880441 0.44000003
0.075498283 0.011880441 0.44000003
0.076438092 0.011907442 0.44100001
0.077206314 0.011907442 0.44100001
0.060935162 0.012646921 0.44000003
0.061561413 0.012618178 0.43900001
0.062184177 0.012589435 0.43800002
0.06265974 0.012531949 0.43600002
0.063419253 0.012531949 0.43600002
0.064178765 0.012531949 0.43600002
0.06478934 0.012503206 0.43500003
0.065547109 0.012503206 0.43500003
0.066304877 0.012503206 0.43500003
0.067062646 0.012503206 0.43500003
0.067976326 0.012531949 0.43600002
0.069051139 0.012589435 0.43800002
0.069973528 0.012618178 0.43900001
0.070899405 0.012646921 0.44000003
0.071665883 0.012646921 0.44000003
0.072432362 0.012646921 0.44000003
0.073365204 0.012675663 0.44100001
0.074133426 0.012675663 0.44100001
0.074901648 0.012675663 0.44100001
0.07566987 0.012675663 0.44100001
0.076438092 0.012675663 0.44100001
0.061701644 0.0134134 0.44000003
0.062326152 0.013382915 0.43900001
0.06265974 0.01329146 0.43600002
0.063419253 0.01329146 0.43600002
0.064178765 0.01329146 0.43600002
0.064938277 0.01329146 0.43600002
0.065697789 0.01329146 0.43600002
0.066457301 0.01329146 0.43600002
0.067216814 0.01329146 0.43600002
0.067976326 0.01329146 0.43600002
0.069051139 0.01335243 0.43800002
0.070132926 0.0134134 0.44000003
0.070899405 0.0134134 0.44000003
0.062326152 0.014147654 0.43900001
0.06265974 0.014050973 0.43600002
0.063419253 0.014050973 0.43600002
0.064178765 0.014050973 0.43600002
0.064938277 0.014050973 0.43600002
0.065697789 0.014050973 0.43600002
0.066457301 0.014050973 0.43600002
0.067216814 0.014050973 0.43600002
0.067976326 0.014050973 0.43600002
0.068893492 0.0140832 0.43700001
0.06265974 0.014810485 0.43600002
0.063419253 0.014810485 0.43600002
0.064178765 0.014810485 0.43600002
0.064938277 0.014810485 0.43600002
0.065697789 0.014810485 0.43600002
0.066457301 0.014810485 0.43600002
0.067216814 0.014810485 0.43600002
0.068132237 0.014844454 0.43700001
