# .PCD v0.7 - Point Cloud Data file format
VERSION 0.7
FIELDS x y z
SIZE 4 4 4
TYPE F F F
COUNT 1 1 1
WIDTH 1375
HEIGHT 1
VIEWPOINT 0 0 0 1 0 0 0
POINTS 1375
DATA ascii
-0.10134085 -0.22476156 0.65000004
-0.10036273 -0.22510736 0.65100002
-0.09922868 -0.22510736 0.65100002
-0.098094642 -0.22510736 0.65100002
-0.096960597 -0.22510736 0.65100002
-0.095973752 -0.22545314 0.65200001
-0.094837971 -0.22545314 0.65200001
-0.093702182 -0.22545314 0.65200001
-0.092566401 -0.22545314 0.65200001
-0.091711082 -0.22614472 0.65400004
-0.090710297 -0.2264905 0.65500003
-0.089569293 -0.2264905 0.65500003
-0.088563286 -0.22683628 0.65600002
-0.087553799 -0.22718208 0.65700001
-0.086409301 -0.22718208 0.65700001
-0.085264809 -0.22718208 0.65700001
-0.084120311 -0.22718208 0.65700001
-0.08297582 -0.22718208 0.65700001
-0.081831329 -0.22718208 0.65700001
-0.08068683 -0.22718208 0.65700001
-0.22711501 -0.23670298 0.68800002
-0.22525978 -0.23601489 0.68600005
-0.22341152 -0.2353268 0.68400002
-0.22157022 -0.23463871 0.68200004
-0.22005904 -0.23429465 0.68100005
-0.21887273 -0.23429465 0.68100005
-0.21704711 -0.23360658 0.67900002
-0.2158643 -0.23360658 0.67900002
-0.2143653 -0.23326252 0.67800003
-0.21286979 -0.23291849 0.67700005
-0.21169047 -0.23291849 0.67700005
-0.21051113 -0.23291849 0.67700005
-0.20871338 -0.2322304 0.67500001
-0.20753753 -0.2322304 0.67500001
-0.20636168 -0.2322304 0.67500001
-0.20488186 -0.23188634 0.67400002
-0.20370775 -0.23188634 0.67400002
-0.20253365 -0.23188634 0.67400002
-0.20046328 -0.23085421 0.671
-0.19929439 -0.23085421 0.671
-0.19783024 -0.23051016 0.67000002
-0.19636957 -0.23016612 0.66900003
-0.19520418 -0.23016612 0.66900003
-0.19374874 -0.22982207 0.66800004
-0.19200848 -0.22913398 0.66600001
-0.19084831 -0.22913398 0.66600001
-0.18968813 -0.22913398 0.66600001
-0.18852796 -0.22913398 0.66600001
-0.18708646 -0.22878994 0.66500002
-0.18592803 -0.22878994 0.66500002
-0.1847696 -0.22878994 0.66500002
-0.18333507 -0.22844589 0.66400003
-0.18217838 -0.22844589 0.66400003
-0.18102169 -0.22844589 0.66400003
-0.17932323 -0.22775781 0.66200006
-0.1779009 -0.22741376 0.66100001
-0.17674942 -0.22741376 0.66100001
-0.17559797 -0.22741376 0.66100001
-0.17444651 -0.22741376 0.66100001
-0.17329504 -0.22741376 0.66100001
-0.17214358 -0.22741376 0.66100001
-0.17073344 -0.22706972 0.66000003
-0.16958371 -0.22706972 0.66000003
-0.16817878 -0.22672567 0.65900004
-0.16703081 -0.22672567 0.65900004
-0.16588283 -0.22672567 0.65900004
-0.16423491 -0.22603758 0.65700001
-0.16309041 -0.22603758 0.65700001
-0.16169941 -0.22569354 0.65600002
-0.16055666 -0.22569354 0.65600002
-0.15965693 -0.22603758 0.65700001
-0.15851243 -0.22603758 0.65700001
-0.15736793 -0.22603758 0.65700001
-0.15622345 -0.22603758 0.65700001
-0.15507895 -0.22603758 0.65700001
-0.15370016 -0.22569354 0.65600002
-0.1525574 -0.22569354 0.65600002
-0.15141465 -0.22569354 0.65600002
-0.15027189 -0.22569354 0.65600002
-0.14912915 -0.22569354 0.65600002
-0.1479864 -0.22569354 0.65600002
-0.1466198 -0.22534949 0.65500003
-0.14547879 -0.22534949 0.65500003
-0.14433777 -0.22534949 0.65500003
-0.14319676 -0.22534949 0.65500003
-0.14205575 -0.22534949 0.65500003
-0.14091474 -0.22534949 0.65500003
-0.13956034 -0.22500545 0.65400004
-0.13842107 -0.22500545 0.65400004
-0.13728181 -0.22500545 0.65400004
-0.13614254 -0.22500545 0.65400004
-0.13459042 -0.22431736 0.65200001
-0.13345464 -0.22431736 0.65200001
-0.13231884 -0.22431736 0.65200001
-0.13118306 -0.22431736 0.65200001
-0.13004728 -0.22431736 0.65200001
-0.1289115 -0.22431736 0.65200001
-0.12777571 -0.22431736 0.65200001
-0.12663992 -0.22431736 0.65200001
-0.12550414 -0.22431736 0.65200001
-0.1241776 -0.2239733 0.65100002
-0.12304357 -0.2239733 0.65100002
-0.12190952 -0.2239733 0.65100002
-0.12077548 -0.2239733 0.65100002
-0.11964144 -0.2239733 0.65100002
-0.11850739 -0.2239733 0.65100002
-0.11737335 -0.2239733 0.65100002
-0.11623931 -0.2239733 0.65100002
-0.11510527 -0.2239733 0.65100002
-0.11397123 -0.2239733 0.65100002
-0.11283719 -0.2239733 0.65100002
-0.11170314 -0.2239733 0.65100002
-0.1105691 -0.2239733 0.65100002
-0.10943506 -0.2239733 0.65100002
-0.10830102 -0.2239733 0.65100002
-0.10700236 -0.22362927 0.65000004
-0.10587005 -0.22362927 0.65000004
-0.10489889 -0.2239733 0.65100002
-0.10376485 -0.2239733 0.65100002
-0.10263081 -0.2239733 0.65100002
-0.10149676 -0.2239733 0.65100002
-0.10036273 -0.2239733 0.65100002
-0.09922868 -0.2239733 0.65100002
-0.098245323 -0.22431736 0.65200001
-0.097109541 -0.22431736 0.65200001
-0.096268155 -0.22500545 0.65400004
-0.094837971 -0.22431736 0.65200001
-0.093989618 -0.22500545 0.65400004
-0.09285035 -0.22500545 0.65400004
-0.091711082 -0.22500545 0.65400004
-0.090710297 -0.22534949 0.65500003
-0.089706041 -0.22569354 0.65600002
-0.088563286 -0.22569354 0.65600002
-0.087553799 -0.22603758 0.65700001
-0.086409301 -0.22603758 0.65700001
-0.085264809 -0.22603758 0.65700001
-0.084120311 -0.22603758 0.65700001
-0.08297582 -0.22603758 0.65700001
-0.081831329 -0.22603758 0.65700001
-0.22124533 -0.23310836 0.68100005
-0.22005904 -0.23310836 0.68100005
-0.21887273 -0.23310836 0.68100005
-0.21704711 -0.23242375 0.67900002
-0.2158643 -0.23242375 0.67900002
-0.2143653 -0.23208144 0.67800003
-0.21286979 -0.23173915 0.67700005
-0.21169047 -0.23173915 0.67700005
-0.20988923 -0.23105454 0.67500001
-0.20871338 -0.23105454 0.67500001
-0.20753753 -0.23105454 0.67500001
-0.20605597 -0.23071223 0.67400002
-0.20488186 -0.23071223 0.67400002
-0.20370775 -0.23071223 0.67400002
-0.20253365 -0.23071223 0.67400002
-0.20106079 -0.23036994 0.67300004
-0.19929439 -0.22968532 0.671
-0.19783024 -0.22934303 0.67000002
-0.19636957 -0.22900072 0.66900003
-0.19549596 -0.22934303 0.67000002
-0.19316866 -0.22797382 0.66600001
-0.19200848 -0.22797382 0.66600001
-0.19084831 -0.22797382 0.66600001
-0.18968813 -0.22797382 0.66600001
-0.18852796 -0.22797382 0.66600001
-0.18708646 -0.22763151 0.66500002
-0.18592803 -0.22763151 0.66500002
-0.1847696 -0.22763151 0.66500002
-0.18361117 -0.22763151 0.66500002
-0.18217838 -0.2272892 0.66400003
-0.18102169 -0.2272892 0.66400003
-0.17932323 -0.2266046 0.66200006
-0.1779009 -0.2262623 0.66100001
-0.17674942 -0.2262623 0.66100001
-0.17559797 -0.2262623 0.66100001
-0.17444651 -0.2262623 0.66100001
-0.17329504 -0.2262623 0.66100001
-0.17214358 -0.2262623 0.66100001
-0.17073344 -0.22591999 0.66000003
-0.16958371 -0.22591999 0.66000003
-0.16843399 -0.22591999 0.66000003
-0.16728427 -0.22591999 0.66000003
-0.16588283 -0.2255777 0.65900004
-0.16473486 -0.2255777 0.65900004
-0.16309041 -0.22489308 0.65700001
-0.16169941 -0.22455078 0.65600002
-0.16055666 -0.22455078 0.65600002
-0.15965693 -0.22489308 0.65700001
-0.15899496 -0.2255777 0.65900004
-0.15736793 -0.22489308 0.65700001
-0.15622345 -0.22489308 0.65700001
-0.15507895 -0.22489308 0.65700001
-0.15393445 -0.22489308 0.65700001
-0.15278997 -0.22489308 0.65700001
-0.15141465 -0.22455078 0.65600002
-0.15027189 -0.22455078 0.65600002
-0.14912915 -0.22455078 0.65600002
-0.1479864 -0.22455078 0.65600002
-0.14684364 -0.22455078 0.65600002
-0.14570089 -0.22455078 0.65600002
-0.14433777 -0.22420847 0.65500003
-0.14319676 -0.22420847 0.65500003
-0.14227264 -0.22455078 0.65600002
-0.14112988 -0.22455078 0.65600002
-0.13977373 -0.22420847 0.65500003
-0.13863273 -0.22420847 0.65500003
-0.13728181 -0.22386618 0.65400004
-0.1357262 -0.22318158 0.65200001
-0.13459042 -0.22318158 0.65200001
-0.13345464 -0.22318158 0.65200001
-0.13231884 -0.22318158 0.65200001
-0.13118306 -0.22318158 0.65200001
-0.13004728 -0.22318158 0.65200001
-0.1289115 -0.22318158 0.65200001
-0.12777571 -0.22318158 0.65200001
-0.12663992 -0.22318158 0.65200001
-0.12550414 -0.22318158 0.65200001
-0.12436835 -0.22318158 0.65200001
-0.12304357 -0.22283927 0.65100002
-0.12190952 -0.22283927 0.65100002
-0.12077548 -0.22283927 0.65100002
-0.11982522 -0.22318158 0.65200001
-0.11850739 -0.22283927 0.65100002
-0.11737335 -0.22283927 0.65100002
-0.11623931 -0.22283927 0.65100002
-0.11528208 -0.22318158 0.65200001
-0.1141463 -0.22318158 0.65200001
-0.11301052 -0.22318158 0.65200001
-0.11170314 -0.22283927 0.65100002
-0.1105691 -0.22283927 0.65100002
-0.10943506 -0.22283927 0.65100002
-0.10830102 -0.22283927 0.65100002
-0.10716698 -0.22283927 0.65100002
-0.10603293 -0.22283927 0.65100002
-0.10489889 -0.22283927 0.65100002
-0.10376485 -0.22283927 0.65100002
-0.10263081 -0.22283927 0.65100002
-0.10149676 -0.22283927 0.65100002
-0.10051689 -0.22318158 0.65200001
-0.099381104 -0.22318158 0.65200001
-0.098245323 -0.22318158 0.65200001
-0.097407423 -0.22386618 0.65400004
-0.096268155 -0.22386618 0.65400004
-0.095128886 -0.22386618 0.65400004
-0.094133332 -0.22420847 0.65500003
-0.092992321 -0.22420847 0.65500003
-0.091851309 -0.22420847 0.65500003
-0.090848789 -0.22455078 0.65600002
-0.089706041 -0.22455078 0.65600002
-0.08869829 -0.22489308 0.65700001
-0.087553799 -0.22489308 0.65700001
-0.086672343 -0.2255777 0.65900004
-0.085524365 -0.2255777 0.65900004
-0.084376387 -0.2255777 0.65900004
-0.21704711 -0.23124093 0.67900002
-0.21554638 -0.23090038 0.67800003
-0.21404913 -0.23055981 0.67700005
-0.21286979 -0.23055981 0.67700005
-0.21169047 -0.23055981 0.67700005
-0.20988923 -0.22987869 0.67500001
-0.20871338 -0.22987869 0.67500001
-0.20753753 -0.22987869 0.67500001
-0.20605597 -0.22953813 0.67400002
-0.20488186 -0.22953813 0.67400002
-0.20370775 -0.22953813 0.67400002
-0.20223315 -0.22919756 0.67300004
-0.20046328 -0.22851644 0.671
-0.19929439 -0.22851644 0.671
-0.19753498 -0.22783533 0.66900003
-0.19636957 -0.22783533 0.66900003
-0.19549596 -0.22817588 0.67000002
-0.19374874 -0.22749476 0.66800004
-0.19200848 -0.22681364 0.66600001
-0.19084831 -0.22681364 0.66600001
-0.18968813 -0.22681364 0.66600001
-0.18852796 -0.22681364 0.66600001
-0.18708646 -0.22647308 0.66500002
-0.18592803 -0.22647308 0.66500002
-0.1847696 -0.22647308 0.66500002
-0.18361117 -0.22647308 0.66500002
-0.18217838 -0.22613251 0.66400003
-0.18102169 -0.22613251 0.66400003
-0.17932323 -0.22545139 0.66200006
-0.1779009 -0.22511083 0.66100001
-0.17674942 -0.22511083 0.66100001
-0.17559797 -0.22511083 0.66100001
-0.17444651 -0.22511083 0.66100001
-0.17329504 -0.22511083 0.66100001
-0.17214358 -0.22511083 0.66100001
-0.17073344 -0.22477028 0.66000003
-0.16958371 -0.22477028 0.66000003
-0.16843399 -0.22477028 0.66000003
-0.16728427 -0.22477028 0.66000003
-0.16588283 -0.22442971 0.65900004
-0.16498484 -0.22477028 0.66000003
-0.16358687 -0.22442971 0.65900004
-0.16194591 -0.22374859 0.65700001
-0.16080141 -0.22374859 0.65700001
-0.16014294 -0.22442971 0.65900004
-0.15899496 -0.22442971 0.65900004
-0.15784699 -0.22442971 0.65900004
-0.156699 -0.22442971 0.65900004
-0.15507895 -0.22374859 0.65700001
-0.15393445 -0.22374859 0.65700001
-0.15278997 -0.22374859 0.65700001
-0.15141465 -0.22340803 0.65600002
-0.15027189 -0.22340803 0.65600002
-0.14912915 -0.22340803 0.65600002
-0.1479864 -0.22340803 0.65600002
-0.14684364 -0.22340803 0.65600002
-0.14570089 -0.22340803 0.65600002
-0.14455813 -0.22340803 0.65600002
-0.14341539 -0.22340803 0.65600002
-0.14227264 -0.22340803 0.65600002
-0.14112988 -0.22340803 0.65600002
-0.13998713 -0.22340803 0.65600002
-0.13863273 -0.22306746 0.65500003
-0.13749172 -0.22306746 0.65500003
-0.13635071 -0.22306746 0.65500003
-0.13500327 -0.22272691 0.65400004
-0.133864 -0.22272691 0.65400004
-0.13272473 -0.22272691 0.65400004
-0.13118306 -0.22204578 0.65200001
-0.1304462 -0.22272691 0.65400004
-0.1289115 -0.22204578 0.65200001
-0.12816766 -0.22272691 0.65400004
-0.12702839 -0.22272691 0.65400004
-0.12550414 -0.22204578 0.65200001
-0.12436835 -0.22204578 0.65200001
-0.12323257 -0.22204578 0.65200001
-0.12209678 -0.22204578 0.65200001
-0.120961 -0.22204578 0.65200001
-0.11982522 -0.22204578 0.65200001
-0.11868943 -0.22204578 0.65200001
-0.11755365 -0.22204578 0.65200001
-0.11641787 -0.22204578 0.65200001
-0.11528208 -0.22204578 0.65200001
-0.1141463 -0.22204578 0.65200001
-0.11301052 -0.22204578 0.65200001
-0.11187473 -0.22204578 0.65200001
-0.11073895 -0.22204578 0.65200001
-0.10960316 -0.22204578 0.65200001
-0.10846738 -0.22204578 0.65200001
-0.1073316 -0.22204578 0.65200001
-0.10619581 -0.22204578 0.65200001
-0.10506003 -0.22204578 0.65200001
-0.10392424 -0.22204578 0.65200001
-0.10278846 -0.22204578 0.65200001
-0.10165267 -0.22204578 0.65200001
-0.10051689 -0.22204578 0.65200001
-0.099381104 -0.22204578 0.65200001
-0.098546691 -0.22272691 0.65400004
-0.097407423 -0.22272691 0.65400004
-0.096415348 -0.22306746 0.65500003
-0.095128886 -0.22272691 0.65400004
-0.094133332 -0.22306746 0.65500003
-0.092992321 -0.22306746 0.65500003
-0.091851309 -0.22306746 0.65500003
-0.090848789 -0.22340803 0.65600002
-0.089842781 -0.22374859 0.65700001
-0.08869829 -0.22374859 0.65700001
-0.087553799 -0.22374859 0.65700001
-0.086672343 -0.22442971 0.65900004
-0.085524365 -0.22442971 0.65900004
-0.21768643 -0.23073575 0.68100005
-0.2158643 -0.23005812 0.67900002
-0.2143653 -0.2297193 0.67800003
-0.21286979 -0.22938047 0.67700005
-0.21106508 -0.22870284 0.67500001
-0.20988923 -0.22870284 0.67500001
-0.20871338 -0.22870284 0.67500001
-0.20723008 -0.22836402 0.67400002
-0.20605597 -0.22836402 0.67400002
-0.20488186 -0.22836402 0.67400002
-0.20340551 -0.2280252 0.67300004
-0.20223315 -0.2280252 0.67300004
-0.20046328 -0.22734757 0.671
-0.19929439 -0.22734757 0.671
-0.19783024 -0.22700875 0.67000002
-0.1966631 -0.22700875 0.67000002
-0.19549596 -0.22700875 0.67000002
-0.19403878 -0.22666992 0.66900003
-0.19200848 -0.22565347 0.66600001
-0.19084831 -0.22565347 0.66600001
-0.18968813 -0.22565347 0.66600001
-0.18824489 -0.22531465 0.66500002
-0.18708646 -0.22531465 0.66500002
-0.18592803 -0.22531465 0.66500002
-0.1847696 -0.22531465 0.66500002
-0.18333507 -0.22497582 0.66400003
-0.18245274 -0.22531465 0.66500002
-0.18102169 -0.22497582 0.66400003
-0.17932323 -0.22429819 0.66200006
-0.1779009 -0.22395937 0.66100001
-0.17674942 -0.22395937 0.66100001
-0.17559797 -0.22395937 0.66100001
-0.17444651 -0.22395937 0.66100001
-0.17329504 -0.22395937 0.66100001
-0.17214358 -0.22395937 0.66100001
-0.17099212 -0.22395937 0.66100001
-0.16984065 -0.22395937 0.66100001
-0.16843399 -0.22362055 0.66000003
-0.16728427 -0.22362055 0.66000003
-0.16613455 -0.22362055 0.66000003
-0.16473486 -0.22328174 0.65900004
-0.16358687 -0.22328174 0.65900004
-0.16194591 -0.2226041 0.65700001
-0.16080141 -0.2226041 0.65700001
-0.16014294 -0.22328174 0.65900004
-0.15899496 -0.22328174 0.65900004
-0.15784699 -0.22328174 0.65900004
-0.156699 -0.22328174 0.65900004
-0.15507895 -0.2226041 0.65700001
-0.15393445 -0.2226041 0.65700001
-0.15278997 -0.2226041 0.65700001
-0.15164547 -0.2226041 0.65700001
-0.15027189 -0.22226527 0.65600002
-0.14912915 -0.22226527 0.65600002
-0.1479864 -0.22226527 0.65600002
-0.14684364 -0.22226527 0.65600002
-0.14570089 -0.22226527 0.65600002
-0.14455813 -0.22226527 0.65600002
-0.14341539 -0.22226527 0.65600002
-0.14227264 -0.22226527 0.65600002
-0.14112988 -0.22226527 0.65600002
-0.13998713 -0.22226527 0.65600002
-0.13884437 -0.22226527 0.65600002
-0.13749172 -0.22192647 0.65500003
-0.13635071 -0.22192647 0.65500003
-0.13520969 -0.22192647 0.65500003
-0.13406868 -0.22192647 0.65500003
-0.13272473 -0.22158764 0.65400004
-0.13158546 -0.22158764 0.65400004
-0.1304462 -0.22158764 0.65400004
-0.1289115 -0.22091 0.65200001
-0.12816766 -0.22158764 0.65400004
-0.12702839 -0.22158764 0.65400004
-0.12588912 -0.22158764 0.65400004
-0.12474985 -0.22158764 0.65400004
-0.12323257 -0.22091 0.65200001
-0.12209678 -0.22091 0.65200001
-0.120961 -0.22091 0.65200001
-0.11982522 -0.22091 0.65200001
-0.11868943 -0.22091 0.65200001
-0.11755365 -0.22091 0.65200001
-0.11641787 -0.22091 0.65200001
-0.11528208 -0.22091 0.65200001
-0.1141463 -0.22091 0.65200001
-0.11301052 -0.22091 0.65200001
-0.11187473 -0.22091 0.65200001
-0.11073895 -0.22091 0.65200001
-0.10960316 -0.22091 0.65200001
-0.10846738 -0.22091 0.65200001
-0.1073316 -0.22091 0.65200001
-0.10619581 -0.22091 0.65200001
-0.10538229 -0.22158764 0.65400004
-0.10424303 -0.22158764 0.65400004
-0.10278846 -0.22091 0.65200001
-0.1021204 -0.22192647 0.65500003
-0.10097939 -0.22192647 0.65500003
-0.09968596 -0.22158764 0.65400004
-0.098697372 -0.22192647 0.65500003
-0.09755636 -0.22192647 0.65500003
-0.096415348 -0.22192647 0.65500003
-0.095274344 -0.22192647 0.65500003
-0.094133332 -0.22192647 0.65500003
-0.092992321 -0.22192647 0.65500003
-0.091851309 -0.22192647 0.65500003
-0.090848789 -0.22226527 0.65600002
-0.089842781 -0.2226041 0.65700001
-0.088968299 -0.22328174 0.65900004
-0.21704711 -0.22887529 0.67900002
-0.2158643 -0.22887529 0.67900002
-0.21404913 -0.22820114 0.67700005
-0.21224093 -0.22752699 0.67500001
-0.21106508 -0.22752699 0.67500001
-0.20988923 -0.22752699 0.67500001
-0.20840418 -0.22718991 0.67400002
-0.20723008 -0.22718991 0.67400002
-0.20575024 -0.22685283 0.67300004
-0.20457788 -0.22685283 0.67300004
-0.20340551 -0.22685283 0.67300004
-0.20163216 -0.22617868 0.671
-0.20046328 -0.22617868 0.671
-0.19899738 -0.2258416 0.67000002
-0.19812551 -0.22617868 0.671
-0.1966631 -0.2258416 0.67000002
-0.19549596 -0.2258416 0.67000002
-0.19403878 -0.22550453 0.66900003
-0.19258508 -0.22516745 0.66800004
-0.19084831 -0.22449329 0.66600001
-0.18968813 -0.22449329 0.66600001
-0.18824489 -0.22415622 0.66500002
-0.18708646 -0.22415622 0.66500002
-0.18592803 -0.22415622 0.66500002
-0.18449175 -0.22381914 0.66400003
-0.18361117 -0.22415622 0.66500002
-0.18217838 -0.22381914 0.66400003
-0.18102169 -0.22381914 0.66400003
-0.17932323 -0.22314499 0.66200006
-0.1779009 -0.22280791 0.66100001
-0.17674942 -0.22280791 0.66100001
-0.17559797 -0.22280791 0.66100001
-0.17444651 -0.22280791 0.66100001
-0.17329504 -0.22280791 0.66100001
-0.17214358 -0.22280791 0.66100001
-0.17099212 -0.22280791 0.66100001
-0.16958371 -0.22247083 0.66000003
-0.16843399 -0.22247083 0.66000003
-0.16728427 -0.22247083 0.66000003
-0.16613455 -0.22247083 0.66000003
-0.16498484 -0.22247083 0.66000003
-0.16358687 -0.22213376 0.65900004
-0.16194591 -0.2214596 0.65700001
-0.16080141 -0.2214596 0.65700001
-0.16014294 -0.22213376 0.65900004
-0.15899496 -0.22213376 0.65900004
-0.15784699 -0.22213376 0.65900004
-0.156699 -0.22213376 0.65900004
-0.15507895 -0.2214596 0.65700001
-0.15393445 -0.2214596 0.65700001
-0.15278997 -0.2214596 0.65700001
-0.15164547 -0.2214596 0.65700001
-0.15027189 -0.22112253 0.65600002
-0.14912915 -0.22112253 0.65600002
-0.1479864 -0.22112253 0.65600002
-0.14684364 -0.22112253 0.65600002
-0.14570089 -0.22112253 0.65600002
-0.14455813 -0.22112253 0.65600002
-0.14341539 -0.22112253 0.65600002
-0.14227264 -0.22112253 0.65600002
-0.14112988 -0.22112253 0.65600002
-0.13998713 -0.22112253 0.65600002
-0.13884437 -0.22112253 0.65600002
-0.13770163 -0.22112253 0.65600002
-0.13655888 -0.22112253 0.65600002
-0.13520969 -0.22078545 0.65500003
-0.13406868 -0.22078545 0.65500003
-0.13292767 -0.22078545 0.65500003
-0.13158546 -0.22044837 0.65400004
-0.1304462 -0.22044837 0.65400004
-0.1289115 -0.21977422 0.65200001
-0.12777571 -0.21977422 0.65200001
-0.12722263 -0.22078545 0.65500003
-0.12588912 -0.22044837 0.65400004
-0.12436835 -0.21977422 0.65200001
-0.12323257 -0.21977422 0.65200001
-0.12209678 -0.21977422 0.65200001
-0.12133205 -0.22044837 0.65400004
-0.12019278 -0.22044837 0.65400004
-0.11868943 -0.21977422 0.65200001
-0.11755365 -0.21977422 0.65200001
-0.11641787 -0.21977422 0.65200001
-0.11528208 -0.21977422 0.65200001
-0.1141463 -0.21977422 0.65200001
-0.11301052 -0.21977422 0.65200001
-0.11187473 -0.21977422 0.65200001
-0.11073895 -0.21977422 0.65200001
-0.10960316 -0.21977422 0.65200001
-0.10846738 -0.21977422 0.65200001
-0.1073316 -0.21977422 0.65200001
-0.10652156 -0.22044837 0.65400004
-0.10538229 -0.22044837 0.65400004
-0.10424303 -0.22044837 0.65400004
-0.10310376 -0.22044837 0.65400004
-0.1021204 -0.22078545 0.65500003
-0.10113356 -0.22112253 0.65600002
-0.099990807 -0.22112253 0.65600002
-0.098697372 -0.22078545 0.65500003
-0.09755636 -0.22078545 0.65500003
-0.096562549 -0.22112253 0.65600002
-0.095274344 -0.22078545 0.65500003
-0.094277047 -0.22112253 0.65600002
-0.093134291 -0.22112253 0.65600002
-0.091991544 -0.22112253 0.65600002
-0.09098728 -0.2214596 0.65700001
-0.090116277 -0.22213376 0.65900004
-0.21404913 -0.22702181 0.67700005
-0.21286979 -0.22702181 0.67700005
-0.21106508 -0.22635114 0.67500001
-0.20988923 -0.22635114 0.67500001
-0.20840418 -0.22601581 0.67400002
-0.20723008 -0.22601581 0.67400002
-0.20575024 -0.22568047 0.67300004
-0.20488186 -0.22601581 0.67400002
-0.20340551 -0.22568047 0.67300004
-0.20163216 -0.2250098 0.671
-0.20046328 -0.2250098 0.671
-0.19899738 -0.22467446 0.67000002
-0.19783024 -0.22467446 0.67000002
-0.19695663 -0.2250098 0.671
-0.19520418 -0.22433913 0.66900003
-0.19374874 -0.22400379 0.66800004
-0.19258508 -0.22400379 0.66800004
-0.19142142 -0.22400379 0.66800004
-0.19025777 -0.22400379 0.66800004
-0.18852796 -0.22333312 0.66600001
-0.1873678 -0.22333312 0.66600001
-0.18592803 -0.22299778 0.66500002
-0.18449175 -0.22266245 0.66400003
-0.18361117 -0.22299778 0.66500002
-0.18217838 -0.22266245 0.66400003
-0.18102169 -0.22266245 0.66400003
-0.17932323 -0.22199178 0.66200006
-0.1779009 -0.22165644 0.66100001
-0.17674942 -0.22165644 0.66100001
-0.17559797 -0.22165644 0.66100001
-0.17444651 -0.22165644 0.66100001
-0.17329504 -0.22165644 0.66100001
-0.17214358 -0.22165644 0.66100001
-0.17099212 -0.22165644 0.66100001
-0.16984065 -0.22165644 0.66100001
-0.16868919 -0.22165644 0.66100001
-0.16753773 -0.22165644 0.66100001
-0.16613455 -0.22132112 0.66000003
-0.16498484 -0.22132112 0.66000003
-0.16383511 -0.22132112 0.66000003
-0.1624389 -0.22098579 0.65900004
-0.16129091 -0.22098579 0.65900004
-0.16014294 -0.22098579 0.65900004
-0.15899496 -0.22098579 0.65900004
-0.15784699 -0.22098579 0.65900004
-0.156699 -0.22098579 0.65900004
-0.15507895 -0.22031511 0.65700001
-0.15393445 -0.22031511 0.65700001
-0.15278997 -0.22031511 0.65700001
-0.15164547 -0.22031511 0.65700001
-0.15050097 -0.22031511 0.65700001
-0.14912915 -0.21997978 0.65600002
-0.1479864 -0.21997978 0.65600002
-0.14684364 -0.21997978 0.65600002
-0.14570089 -0.21997978 0.65600002
-0.14455813 -0.21997978 0.65600002
-0.14341539 -0.21997978 0.65600002
-0.14227264 -0.21997978 0.65600002
-0.14112988 -0.21997978 0.65600002
-0.13998713 -0.21997978 0.65600002
-0.13884437 -0.21997978 0.65600002
-0.13770163 -0.21997978 0.65600002
-0.13655888 -0.21997978 0.65600002
-0.13541612 -0.21997978 0.65600002
-0.13406868 -0.21964444 0.65500003
-0.13292767 -0.21964444 0.65500003
-0.13178666 -0.21964444 0.65500003
-0.1304462 -0.21930911 0.65400004
-0.12930693 -0.21930911 0.65400004
-0.12816766 -0.21930911 0.65400004
-0.12722263 -0.21964444 0.65500003
-0.12588912 -0.21930911 0.65400004
-0.12474985 -0.21930911 0.65400004
-0.12361059 -0.21930911 0.65400004
-0.12247132 -0.21930911 0.65400004
-0.12133205 -0.21930911 0.65400004
-0.12037656 -0.21964444 0.65500003
-0.11905351 -0.21930911 0.65400004
-0.11755365 -0.21863844 0.65200001
-0.11641787 -0.21863844 0.65200001
-0.11528208 -0.21863844 0.65200001
-0.1141463 -0.21863844 0.65200001
-0.11335717 -0.21930911 0.65400004
-0.11187473 -0.21863844 0.65200001
-0.11073895 -0.21863844 0.65200001
-0.10960316 -0.21863844 0.65200001
-0.10846738 -0.21863844 0.65200001
-0.10766083 -0.21930911 0.65400004
-0.10652156 -0.21930911 0.65400004
-0.10538229 -0.21930911 0.65400004
-0.10424303 -0.21930911 0.65400004
-0.10310376 -0.21930911 0.65400004
-0.1021204 -0.21964444 0.65500003
-0.10097939 -0.21964444 0.65500003
-0.099990807 -0.21997978 0.65600002
-0.098697372 -0.21964444 0.65500003
-0.097705305 -0.21997978 0.65600002
-0.096562549 -0.21997978 0.65600002
-0.095419794 -0.21997978 0.65600002
-0.094420761 -0.22031511 0.65700001
-0.09327627 -0.22031511 0.65700001
-0.092412233 -0.22098579 0.65900004
-0.091264255 -0.22098579 0.65900004
-0.090389773 -0.22165644 0.66100001
-0.21286979 -0.22584248 0.67700005
-0.21106508 -0.22517529 0.67500001
-0.20988923 -0.22517529 0.67500001
-0.20840418 -0.2248417 0.67400002
-0.20692261 -0.22450811 0.67300004
-0.20575024 -0.22450811 0.67300004
-0.20457788 -0.22450811 0.67300004
-0.20280103 -0.22384092 0.671
-0.20163216 -0.22384092 0.671
-0.20046328 -0.22384092 0.671
-0.19899738 -0.22350733 0.67000002
-0.19783024 -0.22350733 0.67000002
-0.19695663 -0.22384092 0.671
-0.19520418 -0.22317374 0.66900003
-0.19403878 -0.22317374 0.66900003
-0.19287337 -0.22317374 0.66900003
-0.19170798 -0.22317374 0.66900003
-0.19025777 -0.22284015 0.66800004
-0.18852796 -0.22217295 0.66600001
-0.1873678 -0.22217295 0.66600001
-0.18592803 -0.22183935 0.66500002
-0.18449175 -0.22150576 0.66400003
-0.18333507 -0.22150576 0.66400003
-0.18217838 -0.22150576 0.66400003
-0.18102169 -0.22150576 0.66400003
-0.17932323 -0.22083858 0.66200006
-0.1779009 -0.22050498 0.66100001
-0.17674942 -0.22050498 0.66100001
-0.17559797 -0.22050498 0.66100001
-0.17444651 -0.22050498 0.66100001
-0.17329504 -0.22050498 0.66100001
-0.17214358 -0.22050498 0.66100001
-0.17099212 -0.22050498 0.66100001
-0.16984065 -0.22050498 0.66100001
-0.16868919 -0.22050498 0.66100001
-0.16753773 -0.22050498 0.66100001
-0.16638628 -0.22050498 0.66100001
-0.16498484 -0.22017139 0.66000003
-0.16383511 -0.22017139 0.66000003
-0.16194591 -0.21917062 0.65700001
-0.16080141 -0.21917062 0.65700001
-0.15965693 -0.21917062 0.65700001
-0.15899496 -0.2198378 0.65900004
-0.15784699 -0.2198378 0.65900004
-0.156699 -0.2198378 0.65900004
-0.15507895 -0.21917062 0.65700001
-0.15393445 -0.21917062 0.65700001
-0.15278997 -0.21917062 0.65700001
-0.15164547 -0.21917062 0.65700001
-0.15050097 -0.21917062 0.65700001
-0.14912915 -0.21883702 0.65600002
-0.1479864 -0.21883702 0.65600002
-0.14684364 -0.21883702 0.65600002
-0.14570089 -0.21883702 0.65600002
-0.14455813 -0.21883702 0.65600002
-0.14341539 -0.21883702 0.65600002
-0.14248951 -0.21917062 0.65700001
-0.14112988 -0.21883702 0.65600002
-0.13998713 -0.21883702 0.65600002
-0.13884437 -0.21883702 0.65600002
-0.13770163 -0.21883702 0.65600002
-0.13655888 -0.21883702 0.65600002
-0.13541612 -0.21883702 0.65600002
-0.13427337 -0.21883702 0.65600002
-0.13313061 -0.21883702 0.65600002
-0.13178666 -0.21850343 0.65500003
-0.13064565 -0.21850343 0.65500003
-0.12930693 -0.21816984 0.65400004
-0.12816766 -0.21816984 0.65400004
-0.12722263 -0.21850343 0.65500003
-0.12588912 -0.21816984 0.65400004
-0.12474985 -0.21816984 0.65400004
-0.12361059 -0.21816984 0.65400004
-0.12247132 -0.21816984 0.65400004
-0.12133205 -0.21816984 0.65400004
-0.12037656 -0.21850343 0.65500003
-0.11905351 -0.21816984 0.65400004
-0.11755365 -0.21750265 0.65200001
-0.11641787 -0.21750265 0.65200001
-0.11528208 -0.21750265 0.65200001
-0.11449644 -0.21816984 0.65400004
-0.11335717 -0.21816984 0.65400004
-0.11187473 -0.21750265 0.65200001
-0.11073895 -0.21750265 0.65200001
-0.10960316 -0.21750265 0.65200001
-0.1088001 -0.21816984 0.65400004
-0.10782545 -0.21850343 0.65500003
-0.10652156 -0.21816984 0.65400004
-0.10538229 -0.21816984 0.65400004
-0.10424303 -0.21816984 0.65400004
-0.10326141 -0.21850343 0.65500003
-0.1021204 -0.21850343 0.65500003
-0.10113356 -0.21883702 0.65600002
-0.099990807 -0.21883702 0.65600002
-0.098848052 -0.21883702 0.65600002
-0.097705305 -0.21883702 0.65600002
-0.096562549 -0.21883702 0.65600002
-0.095565252 -0.21917062 0.65700001
-0.094708189 -0.2198378 0.65900004
-0.09384416 -0.22050498 0.66100001
-0.09283293 -0.22083858 0.66200006
-0.091679722 -0.22083858 0.66200006
-0.090800017 -0.22150576 0.66400003
-0.21341679 -0.22399944 0.67500001
-0.21224093 -0.22399944 0.67500001
-0.20988923 -0.22399944 0.67500001
-0.20840418 -0.22366759 0.67400002
-0.20692261 -0.22333574 0.67300004
-0.20575024 -0.22333574 0.67300004
-0.20457788 -0.22333574 0.67300004
-0.20280103 -0.22267203 0.671
-0.20163216 -0.22267203 0.671
-0.20016453 -0.22234018 0.67000002
-0.19899738 -0.22234018 0.67000002
-0.19753498 -0.22200833 0.66900003
-0.1966631 -0.22234018 0.67000002
-0.19520418 -0.22200833 0.66900003
-0.19403878 -0.22200833 0.66900003
-0.19316168 -0.22234018 0.67000002
-0.19170798 -0.22200833 0.66900003
-0.19025777 -0.22167648 0.66800004
-0.18852796 -0.22101279 0.66600001
-0.1873678 -0.22101279 0.66600001
-0.18592803 -0.22068092 0.66500002
-0.18449175 -0.22034907 0.66400003
-0.18333507 -0.22034907 0.66400003
-0.18217838 -0.22034907 0.66400003
-0.18047644 -0.21968538 0.66200006
-0.17932323 -0.21968538 0.66200006
-0.17817003 -0.21968538 0.66200006
-0.17674942 -0.21935353 0.66100001
-0.17559797 -0.21935353 0.66100001
-0.17444651 -0.21935353 0.66100001
-0.17329504 -0.21935353 0.66100001
-0.17214358 -0.21935353 0.66100001
-0.17099212 -0.21935353 0.66100001
-0.16984065 -0.21935353 0.66100001
-0.16843399 -0.21902168 0.66000003
-0.16728427 -0.21902168 0.66000003
-0.16613455 -0.21902168 0.66000003
-0.16498484 -0.21902168 0.66000003
-0.16358687 -0.21868983 0.65900004
-0.1624389 -0.21868983 0.65900004
-0.16129091 -0.21868983 0.65900004
-0.16014294 -0.21868983 0.65900004
-0.15899496 -0.21868983 0.65900004
-0.15784699 -0.21868983 0.65900004
-0.15622345 -0.21802612 0.65700001
-0.15507895 -0.21802612 0.65700001
-0.15393445 -0.21802612 0.65700001
-0.15278997 -0.21802612 0.65700001
-0.15164547 -0.21802612 0.65700001
-0.15027189 -0.21769427 0.65600002
-0.14912915 -0.21769427 0.65600002
-0.1479864 -0.21769427 0.65600002
-0.14684364 -0.21769427 0.65600002
-0.14570089 -0.21769427 0.65600002
-0.14455813 -0.21769427 0.65600002
-0.14341539 -0.21769427 0.65600002
-0.14227264 -0.21769427 0.65600002
-0.14112988 -0.21769427 0.65600002
-0.13998713 -0.21769427 0.65600002
-0.13884437 -0.21769427 0.65600002
-0.13770163 -0.21769427 0.65600002
-0.13655888 -0.21769427 0.65600002
-0.13562255 -0.21802612 0.65700001
-0.13427337 -0.21769427 0.65600002
-0.13313061 -0.21769427 0.65600002
-0.13198787 -0.21769427 0.65600002
-0.13064565 -0.21736242 0.65500003
-0.12950464 -0.21736242 0.65500003
-0.12836364 -0.21736242 0.65500003
-0.12722263 -0.21736242 0.65500003
-0.12608162 -0.21736242 0.65500003
-0.12474985 -0.21703057 0.65400004
-0.12361059 -0.21703057 0.65400004
-0.12247132 -0.21703057 0.65400004
-0.12133205 -0.21703057 0.65400004
-0.12019278 -0.21703057 0.65400004
-0.11905351 -0.21703057 0.65400004
-0.11755365 -0.21636687 0.65200001
-0.11641787 -0.21636687 0.65200001
-0.11528208 -0.21636687 0.65200001
-0.11449644 -0.21703057 0.65400004
-0.11335717 -0.21703057 0.65400004
-0.1122179 -0.21703057 0.65400004
-0.11107863 -0.21703057 0.65400004
-0.10993937 -0.21703057 0.65400004
-0.1088001 -0.21703057 0.65400004
-0.10782545 -0.21736242 0.65500003
-0.10652156 -0.21703057 0.65400004
-0.10538229 -0.21703057 0.65400004
-0.10440242 -0.21736242 0.65500003
-0.10326141 -0.21736242 0.65500003
-0.1021204 -0.21736242 0.65500003
-0.10113356 -0.21769427 0.65600002
-0.099990807 -0.21769427 0.65600002
-0.09899874 -0.21802612 0.65700001
-0.097854242 -0.21802612 0.65700001
-0.096709751 -0.21802612 0.65700001
-0.095856167 -0.21868983 0.65900004
-0.09513934 -0.21968538 0.66200006
-0.09427008 -0.22034907 0.66400003
-0.093113393 -0.22034907 0.66400003
-0.092095189 -0.22068092 0.66500002
-0.090936758 -0.22068092 0.66500002
-0.20840418 -0.22249348 0.67400002
-0.20692261 -0.22216336 0.67300004
-0.20605597 -0.22249348 0.67400002
-0.20488186 -0.22249348 0.67400002
-0.20340551 -0.22216336 0.67300004
-0.20163216 -0.22150315 0.671
-0.20046328 -0.22150315 0.671
-0.19929439 -0.22150315 0.671
-0.19812551 -0.22150315 0.671
-0.19695663 -0.22150315 0.671
-0.19549596 -0.22117305 0.67000002
-0.19432881 -0.22117305 0.67000002
-0.19316168 -0.22117305 0.67000002
-0.19199455 -0.22117305 0.67000002
-0.19054258 -0.22084293 0.66900003
-0.18852796 -0.21985261 0.66600001
-0.1873678 -0.21985261 0.66600001
-0.18592803 -0.21952251 0.66500002
-0.1847696 -0.21952251 0.66500002
-0.18361117 -0.21952251 0.66500002
-0.18245274 -0.21952251 0.66500002
-0.18102169 -0.21919239 0.66400003
-0.179865 -0.21919239 0.66400003
-0.17817003 -0.21853217 0.66200006
-0.17674942 -0.21820207 0.66100001
-0.17559797 -0.21820207 0.66100001
-0.17444651 -0.21820207 0.66100001
-0.17329504 -0.21820207 0.66100001
-0.17214358 -0.21820207 0.66100001
-0.17073344 -0.21787195 0.66000003
-0.16958371 -0.21787195 0.66000003
-0.16843399 -0.21787195 0.66000003
-0.16703081 -0.21754184 0.65900004
-0.16613455 -0.21787195 0.66000003
-0.16498484 -0.21787195 0.66000003
-0.16309041 -0.21688163 0.65700001
-0.16194591 -0.21688163 0.65700001
-0.16080141 -0.21688163 0.65700001
-0.16014294 -0.21754184 0.65900004
-0.15899496 -0.21754184 0.65900004
-0.15784699 -0.21754184 0.65900004
-0.15622345 -0.21688163 0.65700001
-0.15507895 -0.21688163 0.65700001
-0.15393445 -0.21688163 0.65700001
-0.15278997 -0.21688163 0.65700001
-0.15164547 -0.21688163 0.65700001
-0.15050097 -0.21688163 0.65700001
-0.14912915 -0.21655151 0.65600002
-0.1479864 -0.21655151 0.65600002
-0.14684364 -0.21655151 0.65600002
-0.14570089 -0.21655151 0.65600002
-0.14455813 -0.21655151 0.65600002
-0.14341539 -0.21655151 0.65600002
-0.14227264 -0.21655151 0.65600002
-0.14112988 -0.21655151 0.65600002
-0.13998713 -0.21655151 0.65600002
-0.13884437 -0.21655151 0.65600002
-0.13770163 -0.21655151 0.65600002
-0.13655888 -0.21655151 0.65600002
-0.13562255 -0.21688163 0.65700001
-0.13427337 -0.21655151 0.65600002
-0.13313061 -0.21655151 0.65600002
-0.13198787 -0.21655151 0.65600002
-0.13064565 -0.21622141 0.65500003
-0.12950464 -0.21622141 0.65500003
-0.12836364 -0.21622141 0.65500003
-0.12722263 -0.21622141 0.65500003
-0.12608162 -0.21622141 0.65500003
-0.12474985 -0.2158913 0.65400004
-0.12361059 -0.2158913 0.65400004
-0.12247132 -0.2158913 0.65400004
-0.12133205 -0.2158913 0.65400004
-0.12019278 -0.2158913 0.65400004
-0.11868943 -0.21523108 0.65200001
-0.11755365 -0.21523108 0.65200001
-0.11641787 -0.21523108 0.65200001
-0.11563571 -0.2158913 0.65400004
-0.11449644 -0.2158913 0.65400004
-0.1135305 -0.21622141 0.65500003
-0.1122179 -0.2158913 0.65400004
-0.11107863 -0.2158913 0.65400004
-0.11010747 -0.21622141 0.65500003
-0.10896646 -0.21622141 0.65500003
-0.10782545 -0.21622141 0.65500003
-0.10668444 -0.21622141 0.65500003
-0.10554343 -0.21622141 0.65500003
-0.10440242 -0.21622141 0.65500003
-0.10326141 -0.21622141 0.65500003
-0.10227631 -0.21655151 0.65600002
-0.10113356 -0.21655151 0.65600002
-0.099990807 -0.21655151 0.65600002
-0.09899874 -0.21688163 0.65700001
-0.098152123 -0.21754184 0.65900004
-0.097004145 -0.21754184 0.65900004
-0.096147083 -0.21820207 0.66100001
-0.095426768 -0.21919239 0.66400003
-0.094412051 -0.21952251 0.66500002
-0.09325362 -0.21952251 0.66500002
-0.092095189 -0.21952251 0.66500002
-0.091073506 -0.21985261 0.66600001
-0.20163216 -0.22033428 0.671
-0.20046328 -0.22033428 0.671
-0.19812551 -0.22033428 0.671
-0.19695663 -0.22033428 0.671
-0.19578774 -0.22033428 0.671
-0.19432881 -0.2200059 0.67000002
-0.19316168 -0.2200059 0.67000002
-0.19199455 -0.2200059 0.67000002
-0.19054258 -0.21967754 0.66900003
-0.18909411 -0.21934918 0.66800004
-0.1873678 -0.21869244 0.66600001
-0.18620762 -0.21869244 0.66600001
-0.1847696 -0.21836407 0.66500002
-0.18361117 -0.21836407 0.66500002
-0.18245274 -0.21836407 0.66500002
-0.18047644 -0.21737897 0.66200006
-0.17932323 -0.21737897 0.66200006
-0.1779009 -0.2170506 0.66100001
-0.17701682 -0.21737897 0.66200006
-0.17559797 -0.2170506 0.66100001
-0.17444651 -0.2170506 0.66100001
-0.17329504 -0.2170506 0.66100001
-0.17214358 -0.2170506 0.66100001
-0.17099212 -0.2170506 0.66100001
-0.16958371 -0.21672224 0.66000003
-0.16868919 -0.2170506 0.66100001
-0.16703081 -0.21639387 0.65900004
-0.16613455 -0.21672224 0.66000003
-0.16423491 -0.21573713 0.65700001
-0.16309041 -0.21573713 0.65700001
-0.16194591 -0.21573713 0.65700001
-0.16129091 -0.21639387 0.65900004
-0.16014294 -0.21639387 0.65900004
-0.15899496 -0.21639387 0.65900004
-0.15784699 -0.21639387 0.65900004
-0.15622345 -0.21573713 0.65700001
-0.15507895 -0.21573713 0.65700001
-0.15393445 -0.21573713 0.65700001
-0.15278997 -0.21573713 0.65700001
-0.15164547 -0.21573713 0.65700001
-0.15050097 -0.21573713 0.65700001
-0.14912915 -0.21540877 0.65600002
-0.1479864 -0.21540877 0.65600002
-0.14684364 -0.21540877 0.65600002
-0.14570089 -0.21540877 0.65600002
-0.14455813 -0.21540877 0.65600002
-0.14341539 -0.21540877 0.65600002
-0.14227264 -0.21540877 0.65600002
-0.14112988 -0.21540877 0.65600002
-0.13998713 -0.21540877 0.65600002
-0.13884437 -0.21540877 0.65600002
-0.13770163 -0.21540877 0.65600002
-0.13655888 -0.21540877 0.65600002
-0.13541612 -0.21540877 0.65600002
-0.13427337 -0.21540877 0.65600002
-0.13313061 -0.21540877 0.65600002
-0.13198787 -0.21540877 0.65600002
-0.13064565 -0.2150804 0.65500003
-0.12970236 -0.21540877 0.65600002
-0.12836364 -0.2150804 0.65500003
-0.12722263 -0.2150804 0.65500003
-0.12608162 -0.2150804 0.65500003
-0.1249406 -0.2150804 0.65500003
-0.12361059 -0.21475203 0.65400004
-0.12247132 -0.21475203 0.65400004
-0.12133205 -0.21475203 0.65400004
-0.12019278 -0.21475203 0.65400004
-0.11905351 -0.21475203 0.65400004
-0.11755365 -0.21409529 0.65200001
-0.11677498 -0.21475203 0.65400004
-0.11563571 -0.21475203 0.65400004
-0.11449644 -0.21475203 0.65400004
-0.1135305 -0.2150804 0.65500003
-0.1122179 -0.21475203 0.65400004
-0.11107863 -0.21475203 0.65400004
-0.11010747 -0.2150804 0.65500003
-0.10896646 -0.2150804 0.65500003
-0.10782545 -0.2150804 0.65500003
-0.10668444 -0.2150804 0.65500003
-0.10554343 -0.2150804 0.65500003
-0.10440242 -0.2150804 0.65500003
-0.10341907 -0.21540877 0.65600002
-0.10227631 -0.21540877 0.65600002
-0.10128772 -0.21573713 0.65700001
-0.10014323 -0.21573713 0.65700001
-0.099450789 -0.21672224 0.66000003
-0.098301068 -0.21672224 0.66000003
-0.097298548 -0.2170506 0.66100001
-0.096583456 -0.2180357 0.66400003
-0.095570482 -0.21836407 0.66500002
-0.094554022 -0.21869244 0.66600001
-0.09325362 -0.21836407 0.66500002
-0.092095189 -0.21836407 0.66500002
-0.19432881 -0.21883877 0.67000002
-0.19316168 -0.21883877 0.67000002
-0.19199455 -0.21883877 0.67000002
-0.19054258 -0.21851213 0.66900003
-0.18937719 -0.21851213 0.66900003
-0.18793045 -0.21818551 0.66800004
-0.18620762 -0.21753226 0.66600001
-0.1847696 -0.21720564 0.66500002
-0.18361117 -0.21720564 0.66500002
-0.18217838 -0.21687901 0.66400003
-0.18047644 -0.21622576 0.66200006
-0.17932323 -0.21622576 0.66200006
-0.1779009 -0.21589914 0.66100001
-0.17701682 -0.21622576 0.66200006
-0.17559797 -0.21589914 0.66100001
-0.17444651 -0.21589914 0.66100001
-0.17329504 -0.21589914 0.66100001
-0.17188315 -0.21557251 0.66000003
-0.17073344 -0.21557251 0.66000003
-0.16958371 -0.21557251 0.66000003
-0.16843399 -0.21557251 0.66000003
-0.16728427 -0.21557251 0.66000003
-0.16613455 -0.21557251 0.66000003
-0.16473486 -0.21524589 0.65900004
-0.16358687 -0.21524589 0.65900004
-0.1624389 -0.21524589 0.65900004
-0.16129091 -0.21524589 0.65900004
-0.16038595 -0.21557251 0.66000003
-0.15899496 -0.21524589 0.65900004
-0.15784699 -0.21524589 0.65900004
-0.156699 -0.21524589 0.65900004
-0.15507895 -0.21459264 0.65700001
-0.15393445 -0.21459264 0.65700001
-0.15278997 -0.21459264 0.65700001
-0.15164547 -0.21459264 0.65700001
-0.15050097 -0.21459264 0.65700001
-0.14935647 -0.21459264 0.65700001
-0.1479864 -0.21426602 0.65600002
-0.14684364 -0.21426602 0.65600002
-0.14570089 -0.21426602 0.65600002
-0.14455813 -0.21426602 0.65600002
-0.14341539 -0.21426602 0.65600002
-0.14227264 -0.21426602 0.65600002
-0.14112988 -0.21426602 0.65600002
-0.13998713 -0.21426602 0.65600002
-0.13884437 -0.21426602 0.65600002
-0.13770163 -0.21426602 0.65600002
-0.13655888 -0.21426602 0.65600002
-0.13541612 -0.21426602 0.65600002
-0.13427337 -0.21426602 0.65600002
-0.13313061 -0.21426602 0.65600002
-0.13198787 -0.21426602 0.65600002
-0.13064565 -0.21393938 0.65500003
-0.12950464 -0.21393938 0.65500003
-0.12836364 -0.21393938 0.65500003
-0.12722263 -0.21393938 0.65500003
-0.12608162 -0.21393938 0.65500003
-0.12474985 -0.21361277 0.65400004
-0.12361059 -0.21361277 0.65400004
-0.12247132 -0.21361277 0.65400004
-0.12133205 -0.21361277 0.65400004
-0.12019278 -0.21361277 0.65400004
-0.11905351 -0.21361277 0.65400004
-0.11791424 -0.21361277 0.65400004
-0.11677498 -0.21361277 0.65400004
-0.11563571 -0.21361277 0.65400004
-0.11467151 -0.21393938 0.65500003
-0.1135305 -0.21393938 0.65500003
-0.11238949 -0.21393938 0.65500003
-0.11107863 -0.21361277 0.65400004
-0.11010747 -0.21393938 0.65500003
-0.10896646 -0.21393938 0.65500003
-0.10782545 -0.21393938 0.65500003
-0.10668444 -0.21393938 0.65500003
-0.10554343 -0.21393938 0.65500003
-0.10456181 -0.21426602 0.65600002
-0.10341907 -0.21426602 0.65600002
-0.10227631 -0.21426602 0.65600002
-0.10128772 -0.21459264 0.65700001
-0.099990807 -0.21426602 0.65600002
-0.09960147 -0.21589914 0.66100001
-0.098450005 -0.21589914 0.66100001
-0.095570482 -0.21720564 0.66500002
-0.094412051 -0.21720564 0.66500002
-0.09325362 -0.21720564 0.66500002
-0.18793045 -0.21702185 0.66800004
-0.18620762 -0.21637209 0.66600001
-0.1847696 -0.21604721 0.66500002
-0.18361117 -0.21604721 0.66500002
-0.18217838 -0.21572232 0.66400003
-0.18047644 -0.21507256 0.66200006
-0.17932323 -0.21507256 0.66200006
-0.1779009 -0.21474768 0.66100001
-0.17674942 -0.21474768 0.66100001
-0.17559797 -0.21474768 0.66100001
-0.17444651 -0.21474768 0.66100001
-0.17303286 -0.21442279 0.66000003
-0.17188315 -0.21442279 0.66000003
-0.17073344 -0.21442279 0.66000003
-0.16958371 -0.21442279 0.66000003
-0.16817878 -0.21409792 0.65900004
-0.16703081 -0.21409792 0.65900004
-0.16588283 -0.21409792 0.65900004
-0.16423491 -0.21344814 0.65700001
-0.16358687 -0.21409792 0.65900004
-0.1624389 -0.21409792 0.65900004
-0.16129091 -0.21409792 0.65900004
-0.16038595 -0.21442279 0.66000003
-0.15899496 -0.21409792 0.65900004
-0.15784699 -0.21409792 0.65900004
-0.156699 -0.21409792 0.65900004
-0.15507895 -0.21344814 0.65700001
-0.15393445 -0.21344814 0.65700001
-0.15278997 -0.21344814 0.65700001
-0.15164547 -0.21344814 0.65700001
-0.15050097 -0.21344814 0.65700001
-0.14935647 -0.21344814 0.65700001
-0.1479864 -0.21312326 0.65600002
-0.14684364 -0.21312326 0.65600002
-0.14592299 -0.21344814 0.65700001
-0.14455813 -0.21312326 0.65600002
-0.14341539 -0.21312326 0.65600002
-0.14227264 -0.21312326 0.65600002
-0.14112988 -0.21312326 0.65600002
-0.13998713 -0.21312326 0.65600002
-0.13884437 -0.21312326 0.65600002
-0.13770163 -0.21312326 0.65600002
-0.13655888 -0.21312326 0.65600002
-0.13541612 -0.21312326 0.65600002
-0.13427337 -0.21312326 0.65600002
-0.13313061 -0.21312326 0.65600002
-0.13198787 -0.21312326 0.65600002
-0.13064565 -0.21279837 0.65500003
-0.12950464 -0.21279837 0.65500003
-0.12836364 -0.21279837 0.65500003
-0.12722263 -0.21279837 0.65500003
-0.12608162 -0.21279837 0.65500003
-0.1249406 -0.21279837 0.65500003
-0.12379959 -0.21279837 0.65500003
-0.12265858 -0.21279837 0.65500003
-0.12151758 -0.21279837 0.65500003
-0.12037656 -0.21279837 0.65500003
-0.11923555 -0.21279837 0.65500003
-0.11809454 -0.21279837 0.65500003
-0.11695353 -0.21279837 0.65500003
-0.11581253 -0.21279837 0.65500003
-0.11484658 -0.21312326 0.65600002
-0.11370383 -0.21312326 0.65600002
-0.11238949 -0.21279837 0.65500003
-0.11124848 -0.21279837 0.65500003
-0.11010747 -0.21279837 0.65500003
-0.10913283 -0.21312326 0.65600002
-0.10782545 -0.21279837 0.65500003
-0.10668444 -0.21279837 0.65500003
-0.10554343 -0.21279837 0.65500003
-0.10440242 -0.21279837 0.65500003
-0.10341907 -0.21312326 0.65600002
-0.10227631 -0.21312326 0.65600002
-0.10113356 -0.21312326 0.65600002
-0.18504745 -0.21521191 0.66600001
-0.18361117 -0.21488878 0.66500002
-0.18217838 -0.21456563 0.66400003
-0.18047644 -0.21391936 0.66200006
-0.17932323 -0.21391936 0.66200006
-0.1779009 -0.21359621 0.66100001
-0.17674942 -0.21359621 0.66100001
-0.17559797 -0.21359621 0.66100001
-0.17444651 -0.21359621 0.66100001
-0.17303286 -0.21327308 0.66000003
-0.17188315 -0.21327308 0.66000003
-0.17073344 -0.21327308 0.66000003
-0.16958371 -0.21327308 0.66000003
-0.16843399 -0.21327308 0.66000003
-0.16703081 -0.21294993 0.65900004
-0.16613455 -0.21327308 0.66000003
-0.16423491 -0.21230365 0.65700001
-0.16358687 -0.21294993 0.65900004
-0.1624389 -0.21294993 0.65900004
-0.16129091 -0.21294993 0.65900004
-0.16038595 -0.21327308 0.66000003
-0.15923622 -0.21327308 0.66000003
-0.15808651 -0.21327308 0.66000003
-0.156699 -0.21294993 0.65900004
-0.15555103 -0.21294993 0.65900004
-0.15440305 -0.21294993 0.65900004
-0.15278997 -0.21230365 0.65700001
-0.15164547 -0.21230365 0.65700001
-0.15050097 -0.21230365 0.65700001
-0.14935647 -0.21230365 0.65700001
-0.14821199 -0.21230365 0.65700001
-0.14706749 -0.21230365 0.65700001
-0.14592299 -0.21230365 0.65700001
-0.14455813 -0.21198051 0.65600002
-0.14363401 -0.21230365 0.65700001
-0.14248951 -0.21230365 0.65700001
-0.14112988 -0.21198051 0.65600002
-0.13998713 -0.21198051 0.65600002
-0.13884437 -0.21198051 0.65600002
-0.13770163 -0.21198051 0.65600002
-0.13655888 -0.21198051 0.65600002
-0.13541612 -0.21198051 0.65600002
-0.13427337 -0.21198051 0.65600002
-0.13292767 -0.21165738 0.65500003
-0.13198787 -0.21198051 0.65600002
-0.13064565 -0.21165738 0.65500003
-0.12950464 -0.21165738 0.65500003
-0.12836364 -0.21165738 0.65500003
-0.12722263 -0.21165738 0.65500003
-0.12608162 -0.21165738 0.65500003
-0.1249406 -0.21165738 0.65500003
-0.1239886 -0.21198051 0.65600002
-0.12265858 -0.21165738 0.65500003
-0.1217031 -0.21198051 0.65600002
-0.12056034 -0.21198051 0.65600002
-0.11923555 -0.21165738 0.65500003
-0.11809454 -0.21165738 0.65500003
-0.11695353 -0.21165738 0.65500003
-0.11598933 -0.21198051 0.65600002
-0.11484658 -0.21198051 0.65600002
-0.11370383 -0.21198051 0.65600002
-0.11238949 -0.21165738 0.65500003
-0.11124848 -0.21165738 0.65500003
-0.11010747 -0.21165738 0.65500003
-0.10896646 -0.21165738 0.65500003
-0.10782545 -0.21165738 0.65500003
-0.10668444 -0.21165738 0.65500003
-0.10554343 -0.21165738 0.65500003
-0.18102169 -0.21340895 0.66400003
-0.17932323 -0.21276616 0.66200006
-0.1779009 -0.21244475 0.66100001
-0.17701682 -0.21276616 0.66200006
-0.17559797 -0.21244475 0.66100001
-0.17444651 -0.21244475 0.66100001
-0.17329504 -0.21244475 0.66100001
-0.17214358 -0.21244475 0.66100001
-0.17073344 -0.21212335 0.66000003
-0.16958371 -0.21212335 0.66000003
-0.16817878 -0.21180196 0.65900004
-0.16703081 -0.21180196 0.65900004
-0.16588283 -0.21180196 0.65900004
-0.16423491 -0.21115915 0.65700001
-0.16358687 -0.21180196 0.65900004
-0.1624389 -0.21180196 0.65900004
-0.16129091 -0.21180196 0.65900004
-0.16038595 -0.21212335 0.66000003
-0.15923622 -0.21212335 0.66000003
-0.15808651 -0.21212335 0.66000003
-0.156699 -0.21180196 0.65900004
-0.15555103 -0.21180196 0.65900004
-0.15440305 -0.21180196 0.65900004
-0.15325508 -0.21180196 0.65900004
-0.15164547 -0.21115915 0.65700001
-0.15050097 -0.21115915 0.65700001
-0.14935647 -0.21115915 0.65700001
-0.14821199 -0.21115915 0.65700001
-0.14706749 -0.21115915 0.65700001
-0.14592299 -0.21115915 0.65700001
-0.1447785 -0.21115915 0.65700001
-0.14363401 -0.21115915 0.65700001
-0.14248951 -0.21115915 0.65700001
-0.14112988 -0.21083775 0.65600002
-0.13998713 -0.21083775 0.65600002
-0.13884437 -0.21083775 0.65600002
-0.13770163 -0.21083775 0.65600002
-0.13655888 -0.21083775 0.65600002
-0.13541612 -0.21083775 0.65600002
-0.13427337 -0.21083775 0.65600002
-0.13313061 -0.21083775 0.65600002
-0.13198787 -0.21083775 0.65600002
-0.13084511 -0.21083775 0.65600002
-0.12970236 -0.21083775 0.65600002
-0.1285596 -0.21083775 0.65600002
-0.12741685 -0.21083775 0.65600002
-0.12627411 -0.21083775 0.65600002
-0.12513135 -0.21083775 0.65600002
-0.1239886 -0.21083775 0.65600002
-0.12284585 -0.21083775 0.65600002
-0.1217031 -0.21083775 0.65600002
-0.12056034 -0.21083775 0.65600002
-0.11941759 -0.21083775 0.65600002
-0.11827484 -0.21083775 0.65600002
-0.11713209 -0.21083775 0.65600002
-0.11598933 -0.21083775 0.65600002
-0.11484658 -0.21083775 0.65600002
-0.11370383 -0.21083775 0.65600002
-0.11256108 -0.21083775 0.65600002
-0.11141833 -0.21083775 0.65600002
-0.11010747 -0.21051636 0.65500003
-0.10896646 -0.21051636 0.65500003
-0.10782545 -0.21051636 0.65500003
-0.10652156 -0.21019496 0.65400004
-0.17932323 -0.21161294 0.66200006
-0.17817003 -0.21161294 0.66200006
-0.17701682 -0.21161294 0.66200006
-0.17559797 -0.2112933 0.66100001
-0.17444651 -0.2112933 0.66100001
