# .PCD v0.7 - Point Cloud Data file format
VERSION 0.7
FIELDS x y z
SIZE 4 4 4
TYPE F F F
COUNT 1 1 1
WIDTH 1319
HEIGHT 1
VIEWPOINT 0 0 0 1 0 0 0
POINTS 1319
DATA ascii
0.081063978 -0.015421927 0.45400003
0.081854843 -0.015421927 0.45400003
0.082645714 -0.015421927 0.45400003
0.083436579 -0.015421927 0.45400003
0.08422745 -0.015421927 0.45400003
0.085018314 -0.015421927 0.45400003
0.084108122 -0.015116206 0.44500002
0.08488331 -0.015116206 0.44500002
0.085658498 -0.015116206 0.44500002
0.086433694 -0.015116206 0.44500002
0.087404855 -0.015150174 0.44600001
0.088181786 -0.015150174 0.44600001
0.089357637 -0.015218113 0.44800001
0.090138055 -0.015218113 0.44800001
0.090918466 -0.015218113 0.44800001
0.091698885 -0.015218113 0.44800001
0.076654971 -0.014695513 0.45600003
0.078072093 -0.014663286 0.45500001
0.079482242 -0.014631059 0.45400003
0.080273107 -0.014631059 0.45400003
0.080885418 -0.014598832 0.45300001
0.081854843 -0.014631059 0.45400003
0.082281634 -0.014566605 0.45200002
0.083069019 -0.014566605 0.45200002
0.083856404 -0.014566605 0.45200002
0.083332933 -0.014341016 0.44500002
0.084108122 -0.014341016 0.44500002
0.08488331 -0.014341016 0.44500002
0.085658498 -0.014341016 0.44500002
0.086433694 -0.014341016 0.44500002
0.087208882 -0.014341016 0.44500002
0.08798407 -0.014341016 0.44500002
0.089158177 -0.01440547 0.44700003
0.089936852 -0.01440547 0.44700003
0.090918466 -0.014437697 0.44800001
0.091698885 -0.014437697 0.44800001
0.075230889 -0.013931646 0.45700002
0.076026984 -0.013931646 0.45700002
0.076654971 -0.013901161 0.45600003
0.077279478 -0.013870676 0.45500001
0.078072093 -0.013870676 0.45500001
0.078864701 -0.013870676 0.45500001
0.079482242 -0.013840191 0.45400003
0.080273107 -0.013840191 0.45400003
0.081063978 -0.013840191 0.45400003
0.081854843 -0.013840191 0.45400003
0.082645714 -0.013840191 0.45400003
0.081966333 -0.013596311 0.44600001
0.082743265 -0.013596311 0.44600001
0.083332933 -0.013565826 0.44500002
0.084108122 -0.013565826 0.44500002
0.08488331 -0.013565826 0.44500002
0.085658498 -0.013565826 0.44500002
0.086239457 -0.013535341 0.44400004
0.087012902 -0.013535341 0.44400004
0.087786354 -0.013535341 0.44400004
0.088559799 -0.013535341 0.44400004
0.090138055 -0.013657281 0.44800001
0.090918466 -0.013657281 0.44800001
0.091698885 -0.013657281 0.44800001
0.075230889 -0.013135551 0.45700002
0.076026984 -0.013135551 0.45700002
0.076654971 -0.013106809 0.45600003
0.077279478 -0.013078066 0.45500001
0.078072093 -0.013078066 0.45500001
0.078864701 -0.013078066 0.45500001
0.079482242 -0.013049323 0.45400003
0.080273107 -0.013049323 0.45400003
0.080885418 -0.01302058 0.45300001
0.081674546 -0.01302058 0.45300001
0.081371441 -0.012848122 0.44700003
0.081966333 -0.012819379 0.44600001
0.082743265 -0.012819379 0.44600001
0.083332933 -0.012790636 0.44500002
0.083919115 -0.012761893 0.44400004
0.08469256 -0.012761893 0.44400004
0.085466012 -0.012761893 0.44400004
0.086239457 -0.012761893 0.44400004
0.087012902 -0.012761893 0.44400004
0.087390922 -0.012704407 0.44200003
0.08816088 -0.012704407 0.44200003
0.090138055 -0.012876865 0.44800001
0.090918466 -0.012876865 0.44800001
0.091698885 -0.012876865 0.44800001
0.092479303 -0.012876865 0.44800001
0.074434794 -0.012339458 0.45700002
0.075230889 -0.012339458 0.45700002
0.076026984 -0.012339458 0.45700002
0.076654971 -0.012312457 0.45600003
0.077279478 -0.012285456 0.45500001
0.078072093 -0.012285456 0.45500001
0.078691371 -0.012258455 0.45400003
0.079482242 -0.012258455 0.45400003
0.07991948 -0.012204452 0.45200002
0.080528311 -0.012177452 0.45100003
0.081313953 -0.012177452 0.45100003
0.081371441 -0.012069448 0.44700003
0.082150109 -0.012069448 0.44700003
0.082743265 -0.012042447 0.44600001
0.083332933 -0.012015446 0.44500002
0.083919115 -0.011988445 0.44400004
0.08469256 -0.011988445 0.44400004
0.085466012 -0.011988445 0.44400004
0.086045228 -0.011961443 0.44300002
0.086620957 -0.011934442 0.44200003
0.087193206 -0.011907442 0.44100001
0.087761968 -0.011880441 0.44000003
0.088528447 -0.011880441 0.44000003
0.089294925 -0.011880441 0.44000003
0.073799834 -0.011568623 0.45800003
0.074434794 -0.011543363 0.45700002
0.075230889 -0.011543363 0.45700002
0.076026984 -0.011543363 0.45700002
0.076654971 -0.011518105 0.45600003
0.077279478 -0.011492846 0.45500001
0.077900507 -0.011467586 0.45400003
0.07851804 -0.011442328 0.45300001
0.079132095 -0.011417069 0.45200002
0.07991948 -0.011417069 0.45200002
0.080528311 -0.01139181 0.45100003
0.08095336 -0.011341291 0.44900003
0.081735514 -0.011341291 0.44900003
0.08178255 -0.011240256 0.44500002
0.082557738 -0.011240256 0.44500002
0.083145663 -0.011214997 0.44400004
0.083919115 -0.011214997 0.44400004
0.084311061 -0.011164479 0.44200003
0.085081026 -0.011164479 0.44200003
0.085850991 -0.011164479 0.44200003
0.086424984 -0.01113922 0.44100001
0.086995482 -0.01111396 0.44000003
0.087761968 -0.01111396 0.44000003
0.088528447 -0.01111396 0.44000003
0.089294925 -0.01111396 0.44000003
0.071562238 -0.010794303 0.45900002
0.073799834 -0.010770787 0.45800003
0.074434794 -0.01074727 0.45700002
0.075230889 -0.01074727 0.45700002
0.07586062 -0.010723753 0.45600003
0.076486871 -0.010700236 0.45500001
0.077279478 -0.010700236 0.45500001
0.077900507 -0.010676718 0.45400003
0.07834471 -0.010629685 0.45200002
0.078957029 -0.010606168 0.45100003
0.07974267 -0.010606168 0.45100003
0.080528311 -0.010606168 0.45100003
0.081313953 -0.010606168 0.45100003
0.080825321 -0.010441548 0.44400004
0.081598766 -0.010441548 0.44400004
0.082372218 -0.010441548 0.44400004
0.083145663 -0.010441548 0.44400004
0.083541103 -0.010394515 0.44200003
0.084311061 -0.010394515 0.44200003
0.085081026 -0.010394515 0.44200003
0.085656755 -0.010370998 0.44100001
0.086424984 -0.010370998 0.44100001
0.086995482 -0.010347481 0.44000003
0.087761968 -0.010347481 0.44000003
0.088528447 -0.010347481 0.44000003
0.089294925 -0.010347481 0.44000003
0.090061404 -0.010347481 0.44000003
0.072361812 -0.0099947257 0.45900002
0.073001996 -0.0099729504 0.45800003
0.073799834 -0.0099729504 0.45800003
0.074597672 -0.0099729504 0.45800003
0.075230889 -0.0099511752 0.45700002
0.07586062 -0.0099294009 0.45600003
0.076486871 -0.0099076256 0.45500001
0.077109635 -0.0098858504 0.45400003
0.077557325 -0.0098423008 0.45200002
0.077998057 -0.0097987503 0.45000002
0.078606881 -0.009776976 0.44900003
0.079389043 -0.009776976 0.44900003
0.080171198 -0.009776976 0.44900003
0.08041247 -0.0097116502 0.44600001
0.081007361 -0.0096898759 0.44500002
0.081598766 -0.0096681006 0.44400004
0.082372218 -0.0096681006 0.44400004
0.0829584 -0.0096463254 0.44300002
0.083541103 -0.0096245511 0.44200003
0.084120311 -0.0096027758 0.44100001
0.084888533 -0.0096027758 0.44100001
0.085656755 -0.0096027758 0.44100001
0.086229004 -0.0095810005 0.44000003
0.086995482 -0.0095810005 0.44000003
0.087761968 -0.0095810005 0.44000003
0.088528447 -0.0095810005 0.44000003
0.089294925 -0.0095810005 0.44000003
0.090266094 -0.0096027758 0.44100001
0.091240741 -0.0096245511 0.44200003
0.092218876 -0.0096463254 0.44300002
0.070267931 -0.0092352135 0.46100003
0.071562238 -0.009195148 0.45900002
0.072361812 -0.009195148 0.45900002
0.073001996 -0.0091751143 0.45800003
0.073799834 -0.0091751143 0.45800003
0.074434794 -0.0091550816 0.45700002
0.075230889 -0.0091550816 0.45700002
0.07586062 -0.0091350488 0.45600003
0.076486871 -0.0091150152 0.45500001
0.076769948 -0.0090549169 0.45200002
0.077385738 -0.0090348832 0.45100003
0.077824727 -0.0089948177 0.44900003
0.078606881 -0.0089948177 0.44900003
0.079212226 -0.008974785 0.44800001
0.079814091 -0.0089547513 0.44700003
0.08041247 -0.0089347186 0.44600001
0.081007361 -0.0089146858 0.44500002
0.08178255 -0.0089146858 0.44500002
0.082372218 -0.0088946521 0.44400004
0.082771137 -0.0088545866 0.44200003
0.083541103 -0.0088545866 0.44200003
0.084120311 -0.0088345539 0.44100001
0.084696047 -0.0088145202 0.44000003
0.085268289 -0.0087944875 0.43900001
0.086033031 -0.0087944875 0.43900001
0.086797766 -0.0087944875 0.43900001
0.087562509 -0.0087944875 0.43900001
0.088528447 -0.0088145202 0.44000003
0.089294925 -0.0088145202 0.44000003
0.090470776 -0.0088545866 0.44200003
0.091447167 -0.0088746194 0.44300002
0.092218876 -0.0088746194 0.44300002
0.06946487 -0.0084321517 0.46100003
0.070267931 -0.0084321517 0.46100003
0.070762657 -0.0083955694 0.45900002
0.071562238 -0.0083955694 0.45900002
0.072361812 -0.0083955694 0.45900002
0.073001996 -0.0083772782 0.45800003
0.0736387 -0.008358988 0.45700002
0.074434794 -0.008358988 0.45700002
0.075066268 -0.0083406968 0.45600003
0.075694263 -0.0083224056 0.45500001
0.076318763 -0.0083041145 0.45400003
0.076600097 -0.0082492419 0.45100003
0.077214152 -0.0082309507 0.45000002
0.077824727 -0.0082126595 0.44900003
0.078431815 -0.0081943683 0.44800001
0.079212226 -0.0081943683 0.44800001
0.079635538 -0.0081577869 0.44600001
0.080232173 -0.0081394957 0.44500002
0.081007361 -0.0081394957 0.44500002
0.081598766 -0.0081212046 0.44400004
0.082372218 -0.0081212046 0.44400004
0.082771137 -0.0080846222 0.44200003
0.083352089 -0.008066332 0.44100001
0.083738819 -0.0080297496 0.43900001
0.084503554 -0.0080297496 0.43900001
0.08507406 -0.0080114584 0.43800002
0.085641079 -0.0079931673 0.43700001
0.086402334 -0.0079931673 0.43700001
0.08716359 -0.0079931673 0.43700001
0.087924846 -0.0079931673 0.43700001
0.088077269 -0.0079382947 0.43400002
0.090470776 -0.0080846222 0.44200003
0.091240741 -0.0080846222 0.44200003
0.092218876 -0.0081029134 0.44300002
0.092990577 -0.0081029134 0.44300002
0.068005942 -0.0076456387 0.46200001
0.068661809 -0.0076290895 0.46100003
0.069314182 -0.0076125404 0.46000001
0.070115507 -0.0076125404 0.46000001
0.070916824 -0.0076125404 0.46000001
0.071562238 -0.0075959913 0.45900002
0.072204165 -0.0075794426 0.45800003
0.073001996 -0.0075794426 0.45800003
0.0736387 -0.0075628934 0.45700002
0.074271917 -0.0075463443 0.45600003
0.074737027 -0.0075132465 0.45400003
0.075361535 -0.0074966974 0.45300001
0.075982563 -0.0074801487 0.45200002
0.076430254 -0.0074470504 0.45000002
0.077042565 -0.0074305013 0.44900003
0.077824727 -0.0074305013 0.44900003
0.078431815 -0.0074139526 0.44800001
0.079035416 -0.0073974035 0.44700003
0.079814091 -0.0073974035 0.44700003
0.080232173 -0.0073643057 0.44500002
0.080825321 -0.0073477565 0.44400004
0.081231207 -0.0073146583 0.44200003
0.082001172 -0.0073146583 0.44200003
0.082396604 -0.0072815605 0.44000003
0.082974076 -0.0072650113 0.43900001
0.083548069 -0.0072484626 0.43800002
0.084311061 -0.0072484626 0.43800002
0.084879823 -0.0072319135 0.43700001
0.085445106 -0.0072153644 0.43600002
0.085809186 -0.0071822666 0.43400002
0.086565211 -0.0071822666 0.43400002
0.087321237 -0.0071822666 0.43400002
0.088077269 -0.0071822666 0.43400002
0.088833295 -0.0071822666 0.43400002
0.091240741 -0.0073146583 0.44200003
0.092010707 -0.0073146583 0.44200003
0.092780665 -0.0073146583 0.44200003
0.065875478 -0.0068704486 0.46400002
0.066540048 -0.0068556415 0.46300003
0.067346595 -0.0068556415 0.46300003
0.068153143 -0.0068556415 0.46300003
0.068661809 -0.0068260273 0.46100003
0.06946487 -0.0068260273 0.46100003
0.070115507 -0.0068112202 0.46000001
0.070762657 -0.0067964136 0.45900002
0.071406327 -0.0067816065 0.45800003
0.072204165 -0.0067816065 0.45800003
0.072842605 -0.0067667994 0.45700002
0.073477566 -0.0067519923 0.45600003
0.073620409 -0.0066927643 0.45200002
0.074243173 -0.0066779573 0.45100003
0.075028814 -0.0066779573 0.45100003
0.075814456 -0.0066779573 0.45100003
0.07626041 -0.0066483435 0.44900003
0.077042565 -0.0066483435 0.44900003
0.077651396 -0.0066335364 0.44800001
0.078256741 -0.0066187293 0.44700003
0.079035416 -0.0066187293 0.44700003
0.079278424 -0.0065743085 0.44400004
0.080051877 -0.0065743085 0.44400004
0.080825321 -0.0065743085 0.44400004
0.081047423 -0.0065298872 0.44100001
0.081815645 -0.0065298872 0.44100001
0.082209341 -0.0065002735 0.43900001
0.082974076 -0.0065002735 0.43900001
0.083548069 -0.0064854664 0.43800002
0.084311061 -0.0064854664 0.43800002
0.084685594 -0.0064558522 0.43600002
0.085249133 -0.0064410456 0.43500003
0.085809186 -0.0064262385 0.43400002
0.086565211 -0.0064262385 0.43400002
0.087321237 -0.0064262385 0.43400002
0.088077269 -0.0064262385 0.43400002
0.088628612 -0.0064114314 0.43300003
0.091447167 -0.0065595014 0.44300002
0.092218876 -0.0065595014 0.44300002
0.092990577 -0.0065595014 0.44300002
0.06358736 -0.0060752253 0.46500003
0.064397387 -0.0060752253 0.46500003
0.065067187 -0.0060621602 0.46400002
0.065875478 -0.0060621602 0.46400002
0.066540048 -0.0060490952 0.46300003
0.067346595 -0.0060490952 0.46300003
0.068153143 -0.0060490952 0.46300003
0.068661809 -0.0060229655 0.46100003
0.069314182 -0.0060099005 0.46000001
0.069963083 -0.0059968354 0.45900002
0.070608489 -0.0059837704 0.45800003
0.071406327 -0.0059837704 0.45800003
0.072204165 -0.0059837704 0.45800003
0.072842605 -0.0059707053 0.45700002
0.073316433 -0.0059445752 0.45500001
0.073457532 -0.0058923154 0.45100003
0.074078552 -0.0058792504 0.45000002
0.074696094 -0.0058661853 0.44900003
0.075646356 -0.0058792504 0.45000002
0.07626041 -0.0058661853 0.44900003
0.076870978 -0.0058531202 0.44800001
0.077304736 -0.0058269906 0.44600001
0.078081667 -0.0058269906 0.44600001
0.078858607 -0.0058269906 0.44600001
0.079099871 -0.0057877954 0.44300002
0.079871573 -0.0057877954 0.44300002
0.080461241 -0.0057747304 0.44200003
0.080863647 -0.0057486002 0.44000003
0.081630126 -0.0057486002 0.44000003
0.082209341 -0.0057355352 0.43900001
0.08278507 -0.0057224706 0.43800002
0.083357319 -0.0057094055 0.43700001
0.084118575 -0.0057094055 0.43700001
0.084491357 -0.0056832754 0.43500003
0.085053153 -0.0056702103 0.43400002
0.085809186 -0.0056702103 0.43400002
0.086565211 -0.0056702103 0.43400002
0.087321237 -0.0056702103 0.43400002
0.088077269 -0.0056702103 0.43400002
0.088628612 -0.0056571453 0.43300003
0.089382894 -0.0056571453 0.43300003
0.092010707 -0.0057747304 0.44200003
0.062777326 -0.0052651954 0.46500003
0.06358736 -0.0052651954 0.46500003
0.064397387 -0.0052651954 0.46500003
0.065207422 -0.0052651954 0.46500003
0.065875478 -0.0052538724 0.46400002
0.066540048 -0.0052425493 0.46300003
0.067346595 -0.0052425493 0.46300003
0.068153143 -0.0052425493 0.46300003
0.068661809 -0.0052199033 0.46100003
0.069314182 -0.0052085803 0.46000001
0.069963083 -0.0051972573 0.45900002
0.070608489 -0.0051859342 0.45800003
0.071250416 -0.0051746112 0.45700002
0.072046511 -0.0051746112 0.45700002
0.072683215 -0.0051632882 0.45600003
0.072994158 -0.0051293192 0.45300001
0.073457532 -0.0051066731 0.45100003
0.074078552 -0.0050953501 0.45000002
0.074696094 -0.0050840275 0.44900003
0.075478248 -0.0050840275 0.44900003
0.076090567 -0.0050727045 0.44800001
0.076699391 -0.0050613815 0.44700003
0.077131413 -0.0050387355 0.44500002
0.077906601 -0.0050387355 0.44500002
0.07850498 -0.0050274124 0.44400004
0.078921318 -0.0050047664 0.44200003
0.079691276 -0.0050047664 0.44200003
0.080461241 -0.0050047664 0.44200003
0.080863647 -0.0049821204 0.44000003
0.081444599 -0.0049707973 0.43900001
0.082022078 -0.0049594743 0.43800002
0.082596064 -0.0049481513 0.43700001
0.083357319 -0.0049481513 0.43700001
0.083541103 -0.0049141822 0.43400002
0.084297128 -0.0049141822 0.43400002
0.085053153 -0.0049141822 0.43400002
0.085809186 -0.0049141822 0.43400002
0.086565211 -0.0049141822 0.43400002
0.087321237 -0.0049141822 0.43400002
0.088077269 -0.0049141822 0.43400002
0.088628612 -0.0049028592 0.43300003
0.089382894 -0.0049028592 0.43300003
0.089929014 -0.0048915362 0.43200001
0.062777326 -0.0044551655 0.46500003
0.06358736 -0.0044551655 0.46500003
0.064397387 -0.0044551655 0.46500003
0.065207422 -0.0044551655 0.46500003
0.065875478 -0.0044455845 0.46400002
0.066540048 -0.004436003 0.46300003
0.067346595 -0.004436003 0.46300003
0.068153143 -0.004436003 0.46300003
0.06836392 -0.0043976791 0.45900002
0.069163501 -0.0043976791 0.45900002
0.069810651 -0.0043880981 0.45800003
0.070608489 -0.0043880981 0.45800003
0.071250416 -0.0043785172 0.45700002
0.071888864 -0.0043689362 0.45600003
0.072523817 -0.0043593552 0.45500001
0.072833024 -0.0043306123 0.45200002
0.073457532 -0.0043210313 0.45100003
0.073913939 -0.0043018693 0.44900003
0.074696094 -0.0043018693 0.44900003
0.075310148 -0.0042922883 0.44800001
0.075920723 -0.0042827073 0.44700003
0.076527804 -0.0042731264 0.44600001
0.077131413 -0.0042635454 0.44500002
0.077731527 -0.0042539644 0.44400004
0.078328162 -0.0042443834 0.44300002
0.078921318 -0.0042348024 0.44200003
0.079510979 -0.0042252215 0.44100001
0.080097169 -0.0042156405 0.44000003
0.080679864 -0.004206059 0.43900001
0.081259079 -0.0041964781 0.43800002
0.081834808 -0.0041868971 0.43700001
0.082596064 -0.0041868971 0.43700001
0.08297582 -0.0041677351 0.43500003
0.083733588 -0.0041677351 0.43500003
0.084297128 -0.0041581541 0.43400002
0.085053153 -0.0041581541 0.43400002
0.085809186 -0.0041581541 0.43400002
0.086565211 -0.0041581541 0.43400002
0.087321237 -0.0041581541 0.43400002
0.088077269 -0.0041581541 0.43400002
0.088628612 -0.0041485731 0.43300003
0.089382894 -0.0041485731 0.43300003
0.089929014 -0.0041389922 0.43200001
0.065875478 -0.0036372961 0.46400002
0.066540048 -0.0036294572 0.46300003
0.067201138 -0.0036216183 0.46200001
0.067564346 -0.0035981012 0.45900002
0.068214983 -0.0035902623 0.45800003
0.069012821 -0.0035902623 0.45800003
0.069658227 -0.0035824233 0.45700002
0.070454322 -0.0035824233 0.45700002
0.071094505 -0.0035745841 0.45600003
0.07173121 -0.0035667452 0.45500001
0.072523817 -0.0035667452 0.45500001
0.072833024 -0.0035432281 0.45200002
0.073457532 -0.0035353892 0.45100003
0.073913939 -0.0035197113 0.44900003
0.07452973 -0.0035118721 0.44800001
0.075142048 -0.0035040332 0.44700003
0.075750872 -0.0034961943 0.44600001
0.076356217 -0.0034883553 0.44500002
0.076784752 -0.0034726772 0.44300002
0.077381387 -0.0034648383 0.44200003
0.078151353 -0.0034648383 0.44200003
0.078742757 -0.0034569993 0.44100001
0.079330683 -0.0034491601 0.44000003
0.079915129 -0.0034413212 0.43900001
0.08049608 -0.0034334823 0.43800002
0.081259079 -0.0034334823 0.43800002
0.081834808 -0.0034256433 0.43700001
0.082407057 -0.0034178041 0.43600002
0.08297582 -0.0034099652 0.43500003
0.083733588 -0.0034099652 0.43500003
0.084297128 -0.0034021263 0.43400002
0.085053153 -0.0034021263 0.43400002
0.085809186 -0.0034021263 0.43400002
0.086565211 -0.0034021263 0.43400002
0.087321237 -0.0034021263 0.43400002
0.088077269 -0.0034021263 0.43400002
0.088628612 -0.0033942873 0.43300003
0.089382894 -0.0033942873 0.43300003
0.090137184 -0.0033942873 0.43300003
0.095974624 -0.0034413212 0.43900001
0.066252619 -0.0028107171 0.46100003
0.066910222 -0.0028046202 0.46000001
0.067417145 -0.0027924262 0.45800003
0.068214983 -0.0027924262 0.45800003
0.069012821 -0.0027924262 0.45800003
0.069658227 -0.0027863292 0.45700002
0.070454322 -0.0027863292 0.45700002
0.071094505 -0.0027802321 0.45600003
0.071888864 -0.0027802321 0.45600003
0.071886249 -0.0027497471 0.45100003
0.07267189 -0.0027497471 0.45100003
0.0729689 -0.0027314562 0.44800001
0.073749319 -0.0027314562 0.44800001
0.074363373 -0.0027253593 0.44700003
0.074973941 -0.0027192621 0.44600001
0.075581029 -0.0027131652 0.44500002
0.076013044 -0.0027009712 0.44300002
0.076784752 -0.0027009712 0.44300002
0.077381387 -0.0026948741 0.44200003
0.077974536 -0.0026887772 0.44100001
0.078564204 -0.0026826803 0.44000003
0.079150386 -0.0026765831 0.43900001
0.079915129 -0.0026765831 0.43900001
0.08049608 -0.0026704862 0.43800002
0.081073552 -0.0026643891 0.43700001
0.081834808 -0.0026643891 0.43700001
0.082407057 -0.0026582922 0.43600002
0.08297582 -0.002652195 0.43500003
0.083733588 -0.002652195 0.43500003
0.084297128 -0.0026460981 0.43400002
0.085053153 -0.0026460981 0.43400002
0.085809186 -0.0026460981 0.43400002
0.086565211 -0.0026460981 0.43400002
0.087321237 -0.0026460981 0.43400002
0.088077269 -0.0026460981 0.43400002
0.088833295 -0.0026460981 0.43400002
0.08958932 -0.0026460981 0.43400002
0.090345353 -0.0026460981 0.43400002
0.095209889 -0.0026765831 0.43900001
0.095974624 -0.0026765831 0.43900001
0.066252619 -0.0020076551 0.46100003
0.066764764 -0.0019989451 0.45900002
0.067417145 -0.00199459 0.45800003
0.068066038 -0.0019902352 0.45700002
0.068862133 -0.0019902352 0.45700002
0.069658227 -0.0019902352 0.45700002
0.070300154 -0.0019858801 0.45600003
0.070938602 -0.0019815252 0.45500001
0.07173121 -0.0019815252 0.45500001
0.071567461 -0.0019553951 0.44900003
0.072188482 -0.0019510401 0.44800001
0.0729689 -0.0019510401 0.44800001
0.073584698 -0.0019466851 0.44700003
0.074197009 -0.0019423302 0.44600001
0.074805841 -0.0019379752 0.44500002
0.075411186 -0.0019336201 0.44400004
0.076013044 -0.0019292651 0.44300002
0.076611422 -0.0019249101 0.44200003
0.077381387 -0.0019249101 0.44200003
0.077974536 -0.0019205551 0.44100001
0.078564204 -0.0019162002 0.44000003
0.079150386 -0.0019118452 0.43900001
0.079733089 -0.0019074901 0.43800002
0.080312304 -0.0019031351 0.43700001
0.081073552 -0.0019031351 0.43700001
0.081647545 -0.0018987801 0.43600002
0.082218051 -0.0018944251 0.43500003
0.08278507 -0.0018900702 0.43400002
0.083733588 -0.0018944251 0.43500003
0.084297128 -0.0018900702 0.43400002
0.085053153 -0.0018900702 0.43400002
0.085809186 -0.0018900702 0.43400002
0.086565211 -0.0018900702 0.43400002
0.087321237 -0.0018900702 0.43400002
0.088077269 -0.0018900702 0.43400002
0.088833295 -0.0018900702 0.43400002
0.08958932 -0.0018900702 0.43400002
0.090345353 -0.0018900702 0.43400002
0.091311291 -0.0018944251 0.43500003
0.09206906 -0.0018944251 0.43500003
0.093467019 -0.0019074901 0.43800002
0.094230011 -0.0019074901 0.43800002
0.095209889 -0.0019118452 0.43900001
0.095974624 -0.0019118452 0.43900001
0.065307587 -0.00120198 0.46000001
0.066108905 -0.00120198 0.46000001
0.066619307 -0.001196754 0.45800003
0.067417145 -0.001196754 0.45800003
0.068066038 -0.0011941411 0.45700002
0.068862133 -0.0011941411 0.45700002
0.069658227 -0.0011941411 0.45700002
0.070454322 -0.0011941411 0.45700002
0.069847234 -0.001170624 0.44800001
0.070627652 -0.001170624 0.44800001
0.071408071 -0.001170624 0.44800001
0.072188482 -0.001170624 0.44800001
0.072806023 -0.0011680111 0.44700003
0.073420078 -0.001165398 0.44600001
0.074197009 -0.001165398 0.44600001
0.074805841 -0.0011627851 0.44500002
0.075411186 -0.001160172 0.44400004
0.076013044 -0.0011575591 0.44300002
0.076611422 -0.001154946 0.44200003
0.077206314 -0.0011523331 0.44100001
0.077797726 -0.00114972 0.44000003
0.078385651 -0.0011471071 0.43900001
0.079150386 -0.0011471071 0.43900001
0.079551049 -0.0011418811 0.43700001
0.080312304 -0.0011418811 0.43700001
0.080888033 -0.001139268 0.43600002
0.081647545 -0.001139268 0.43600002
0.082218051 -0.0011366551 0.43500003
0.08297582 -0.0011366551 0.43500003
0.083733588 -0.0011366551 0.43500003
0.084297128 -0.001134042 0.43400002
0.085053153 -0.001134042 0.43400002
0.085809186 -0.001134042 0.43400002
0.086565211 -0.001134042 0.43400002
0.087321237 -0.001134042 0.43400002
0.088077269 -0.001134042 0.43400002
0.088833295 -0.001134042 0.43400002
0.089795753 -0.0011366551 0.43500003
0.090553522 -0.0011366551 0.43500003
0.091311291 -0.0011366551 0.43500003
0.092280716 -0.001139268 0.43600002
0.09325362 -0.0011418811 0.43700001
0.094014876 -0.0011418811 0.43700001
0.09499301 -0.001144494 0.43800002
0.095756002 -0.001144494 0.43800002
0.065965191 -0.00039978902 0.45900002
0.066619307 -0.00039891803 0.45800003
0.067417145 -0.00039891803 0.45800003
0.068066038 -0.00039804704 0.45700002
0.068711452 -0.00039717602 0.45600003
0.069505803 -0.00039717602 0.45600003
0.069847234 -0.00039020804 0.44800001
0.070627652 -0.00039020804 0.44800001
0.071408071 -0.00039020804 0.44800001
0.072027348 -0.00038933702 0.44700003
0.072806023 -0.00038933702 0.44700003
0.073420078 -0.00038846603 0.44600001
0.074030653 -0.00038759504 0.44500002
0.074637733 -0.00038672402 0.44400004
0.075241342 -0.00038585303 0.44300002
0.075841457 -0.00038498204 0.44200003
0.076611422 -0.00038498204 0.44200003
0.077206314 -0.00038411102 0.44100001
0.077797726 -0.00038324003 0.44000003
0.078385651 -0.00038236903 0.43900001
0.07897009 -0.00038149802 0.43800002
0.079551049 -0.00038062703 0.43700001
0.080128521 -0.00037975603 0.43600002
0.080888033 -0.00037975603 0.43600002
0.081647545 -0.00037975603 0.43600002
0.082218051 -0.00037888502 0.43500003
0.08297582 -0.00037888502 0.43500003
0.083733588 -0.00037888502 0.43500003
0.084491357 -0.00037888502 0.43500003
0.085249133 -0.00037888502 0.43500003
0.086006902 -0.00037888502 0.43500003
0.086764671 -0.00037888502 0.43500003
0.08752244 -0.00037888502 0.43500003
0.088280208 -0.00037888502 0.43500003
0.089037977 -0.00037888502 0.43500003
0.089795753 -0.00037888502 0.43500003
0.090761691 -0.00037975603 0.43600002
0.091521204 -0.00037975603 0.43600002
0.092280716 -0.00037975603 0.43600002
0.09325362 -0.00038062703 0.43700001
0.094014876 -0.00038062703 0.43700001
0.094776131 -0.00038062703 0.43700001
0.095756002 -0.00038149802 0.43800002
0.096519001 -0.00038149802 0.43800002
0.065023638 0.00039891803 0.45800003
0.066619307 0.00039891803 0.45800003
0.067417145 0.00039891803 0.45800003
0.068066038 0.00039804704 0.45700002
0.068862133 0.00039804704 0.45700002
0.069658227 0.00039804704 0.45700002
0.069847234 0.00039020804 0.44800001
0.070627652 0.00039020804 0.44800001
0.071408071 0.00039020804 0.44800001
0.072027348 0.00038933702 0.44700003
0.072643146 0.00038846603 0.44600001
0.073255457 0.00038759504 0.44500002
0.074030653 0.00038759504 0.44500002
0.074469633 0.00038585303 0.44300002
0.075071491 0.00038498204 0.44200003
0.075841457 0.00038498204 0.44200003
0.076438092 0.00038411102 0.44100001
0.077031247 0.00038324003 0.44000003
0.077620909 0.00038236903 0.43900001
0.078385651 0.00038236903 0.43900001
0.07897009 0.00038149802 0.43800002
0.079551049 0.00038062703 0.43700001
0.080128521 0.00037975603 0.43600002
0.080888033 0.00037975603 0.43600002
0.081647545 0.00037975603 0.43600002
0.082218051 0.00037888502 0.43500003
0.08297582 0.00037888502 0.43500003
0.083733588 0.00037888502 0.43500003
0.084491357 0.00037888502 0.43500003
0.085249133 0.00037888502 0.43500003
0.086006902 0.00037888502 0.43500003
0.086764671 0.00037888502 0.43500003
0.08752244 0.00037888502 0.43500003
0.088280208 0.00037888502 0.43500003
0.089242667 0.00037975603 0.43600002
0.089795753 0.00037888502 0.43500003
0.090761691 0.00037975603 0.43600002
0.091521204 0.00037975603 0.43600002
0.092280716 0.00037975603 0.43600002
0.093040228 0.00037975603 0.43600002
0.094014876 0.00038062703 0.43700001
0.094776131 0.00038062703 0.43700001
0.095756002 0.00038149802 0.43800002
0.096519001 0.00038149802 0.43800002
0.067269944 0.0011941411 0.45700002
0.067917101 0.001191528 0.45600003
0.068711452 0.001191528 0.45600003
0.069847234 0.001170624 0.44800001
0.070627652 0.001170624 0.44800001
0.071248673 0.0011680111 0.44700003
0.071866214 0.001165398 0.44600001
0.072643146 0.001165398 0.44600001
0.073255457 0.0011627851 0.44500002
0.073864289 0.001160172 0.44400004
0.074469633 0.0011575591 0.44300002
0.075071491 0.001154946 0.44200003
0.07566987 0.0011523331 0.44100001
0.076264761 0.00114972 0.44000003
0.076856174 0.0011471071 0.43900001
0.077620909 0.0011471071 0.43900001
0.078207098 0.001144494 0.43800002
0.07897009 0.001144494 0.43800002
0.079551049 0.0011418811 0.43700001
0.080312304 0.0011418811 0.43700001
0.080888033 0.001139268 0.43600002
0.081647545 0.001139268 0.43600002
0.082407057 0.001139268 0.43600002
0.08297582 0.0011366551 0.43500003
0.083926082 0.001139268 0.43600002
0.084685594 0.001139268 0.43600002
0.085445106 0.001139268 0.43600002
0.086204618 0.001139268 0.43600002
0.08696413 0.001139268 0.43600002
0.08752244 0.0011366551 0.43500003
0.088483155 0.001139268 0.43600002
0.089242667 0.001139268 0.43600002
0.090002179 0.001139268 0.43600002
0.090761691 0.001139268 0.43600002
0.091521204 0.001139268 0.43600002
0.092280716 0.001139268 0.43600002
0.09325362 0.0011418811 0.43700001
0.094014876 0.0011418811 0.43700001
0.094776131 0.0011418811 0.43700001
0.095537379 0.0011418811 0.43700001
0.096519001 0.001144494 0.43800002
0.097281992 0.001144494 0.43800002
0.067768157 0.0019815252 0.45500001
0.068560772 0.0019815252 0.45500001
0.06969133 0.0019466851 0.44700003
0.070469998 0.0019466851 0.44700003
0.071248673 0.0019466851 0.44700003
0.071866214 0.0019423302 0.44600001
0.072480269 0.0019379752 0.44500002
0.073255457 0.0019379752 0.44500002
0.073864289 0.0019336201 0.44400004
0.074301533 0.0019249101 0.44200003
0.074731804 0.0019162002 0.44000003
0.075498283 0.0019162002 0.44000003
0.076091439 0.0019118452 0.43900001
0.076856174 0.0019118452 0.43900001
0.077620909 0.0019118452 0.43900001
0.078207098 0.0019074901 0.43800002
0.078789793 0.0019031351 0.43700001
0.079551049 0.0019031351 0.43700001
0.080312304 0.0019031351 0.43700001
0.080888033 0.0018987801 0.43600002
0.081647545 0.0018987801 0.43600002
0.082407057 0.0018987801 0.43600002
0.083166569 0.0018987801 0.43600002
0.083926082 0.0018987801 0.43600002
0.084685594 0.0018987801 0.43600002
0.085445106 0.0018987801 0.43600002
0.086204618 0.0018987801 0.43600002
0.08696413 0.0018987801 0.43600002
0.087723643 0.0018987801 0.43600002
0.088483155 0.0018987801 0.43600002
0.089242667 0.0018987801 0.43600002
0.090002179 0.0018987801 0.43600002
0.090761691 0.0018987801 0.43600002
0.091521204 0.0018987801 0.43600002
0.092280716 0.0018987801 0.43600002
0.09325362 0.0019031351 0.43700001
0.094014876 0.0019031351 0.43700001
0.094776131 0.0019031351 0.43700001
0.095537379 0.0019031351 0.43700001
0.096298635 0.0019031351 0.43700001
0.097281992 0.0019074901 0.43800002
0.098268837 0.0019118452 0.43900001
0.067321338 0.0027558443 0.45200002
0.068108723 0.0027558443 0.45200002
0.068286404 0.0027314562 0.44800001
0.069066823 0.0027314562 0.44800001
0.070469998 0.0027253593 0.44700003
0.071089283 0.0027192621 0.44600001
0.071866214 0.0027192621 0.44600001
0.072480269 0.0027131652 0.44500002
0.073090844 0.0027070681 0.44400004
0.073531568 0.0026948741 0.44200003
0.074133426 0.0026887772 0.44100001
0.074731804 0.0026826803 0.44000003
0.075326696 0.0026765831 0.43900001
0.076091439 0.0026765831 0.43900001
0.076856174 0.0026765831 0.43900001
0.077444099 0.0026704862 0.43800002
0.078207098 0.0026704862 0.43800002
0.078789793 0.0026643891 0.43700001
0.079551049 0.0026643891 0.43700001
0.080312304 0.0026643891 0.43700001
0.081073552 0.0026643891 0.43700001
0.081647545 0.0026582922 0.43600002
0.082407057 0.0026582922 0.43600002
0.083166569 0.0026582922 0.43600002
0.084118575 0.0026643891 0.43700001
0.084879823 0.0026643891 0.43700001
0.085641079 0.0026643891 0.43700001
0.086402334 0.0026643891 0.43700001
0.08716359 0.0026643891 0.43700001
0.087723643 0.0026582922 0.43600002
0.088686094 0.0026643891 0.43700001
0.089242667 0.0026582922 0.43600002
0.090002179 0.0026582922 0.43600002
0.090761691 0.0026582922 0.43600002
0.091521204 0.0026582922 0.43600002
0.092280716 0.0026582922 0.43600002
0.09325362 0.0026643891 0.43700001
0.094014876 0.0026643891 0.43700001
0.094776131 0.0026643891 0.43700001
0.095756002 0.0026704862 0.43800002
0.096519001 0.0026704862 0.43800002
0.097281992 0.0026704862 0.43800002
0.098268837 0.0026765831 0.43900001
0.099033579 0.0026765831 0.43900001
0.066828348 0.0035589063 0.45400003
0.067321338 0.0035432281 0.45200002
0.068108723 0.0035432281 0.45200002
0.069066823 0.0035118721 0.44800001
0.06969133 0.0035040332 0.44700003
0.070312351 0.0034961943 0.44600001
0.071089283 0.0034961943 0.44600001
0.071705081 0.0034883553 0.44500002
0.072317392 0.0034805161 0.44400004
0.072761603 0.0034648383 0.44200003
0.073365204 0.0034569993 0.44100001
0.073965326 0.0034491601 0.44000003
0.074731804 0.0034491601 0.44000003
0.075326696 0.0034413212 0.43900001
0.076091439 0.0034413212 0.43900001
0.076856174 0.0034413212 0.43900001
0.077444099 0.0034334823 0.43800002
0.078207098 0.0034334823 0.43800002
0.078789793 0.0034256433 0.43700001
0.079551049 0.0034256433 0.43700001
0.080312304 0.0034256433 0.43700001
0.081073552 0.0034256433 0.43700001
0.081834808 0.0034256433 0.43700001
0.082596064 0.0034256433 0.43700001
0.083357319 0.0034256433 0.43700001
0.084118575 0.0034256433 0.43700001
0.084879823 0.0034256433 0.43700001
0.085641079 0.0034256433 0.43700001
0.086402334 0.0034256433 0.43700001
0.08716359 0.0034256433 0.43700001
0.087924846 0.0034256433 0.43700001
0.088686094 0.0034256433 0.43700001
0.089447349 0.0034256433 0.43700001
0.090208605 0.0034256433 0.43700001
0.090969861 0.0034256433 0.43700001
0.091731116 0.0034256433 0.43700001
0.092492364 0.0034256433 0.43700001
0.09325362 0.0034256433 0.43700001
0.094014876 0.0034256433 0.43700001
0.094776131 0.0034256433 0.43700001
0.095756002 0.0034334823 0.43800002
0.096519001 0.0034334823 0.43800002
0.097504102 0.0034413212 0.43900001
0.098268837 0.0034413212 0.43900001
0.099033579 0.0034413212 0.43900001
0.066874512 0.0043018693 0.44900003
0.067355305 0.0042827073 0.44700003
0.06813398 0.0042827073 0.44700003
0.068912655 0.0042827073 0.44700003
0.069535419 0.0042731264 0.44600001
0.070154697 0.0042635454 0.44500002
0.070929892 0.0042635454 0.44500002
0.071543947 0.0042539644 0.44400004
0.071991637 0.0042348024 0.44200003
0.072761603 0.0042348024 0.44200003
0.073365204 0.0042252215 0.44100001
0.073965326 0.0042156405 0.44000003
0.074731804 0.0042156405 0.44000003
0.075326696 0.004206059 0.43900001
0.076091439 0.004206059 0.43900001
0.076856174 0.004206059 0.43900001
0.077444099 0.0041964781 0.43800002
0.078207098 0.0041964781 0.43800002
0.07897009 0.0041964781 0.43800002
0.079551049 0.0041868971 0.43700001
0.080312304 0.0041868971 0.43700001
0.081073552 0.0041868971 0.43700001
0.081834808 0.0041868971 0.43700001
0.082596064 0.0041868971 0.43700001
0.083357319 0.0041868971 0.43700001
0.084311061 0.0041964781 0.43800002
0.08507406 0.0041964781 0.43800002
0.085837059 0.0041964781 0.43800002
0.08660005 0.0041964781 0.43800002
0.087363049 0.0041964781 0.43800002
0.088126041 0.0041964781 0.43800002
0.08888904 0.0041964781 0.43800002
0.089652039 0.0041964781 0.43800002
0.090415031 0.0041964781 0.43800002
0.090969861 0.0041868971 0.43700001
0.091731116 0.0041868971 0.43700001
0.09270402 0.0041964781 0.43800002
0.093467019 0.0041964781 0.43800002
0.094230011 0.0041964781 0.43800002
0.09499301 0.0041964781 0.43800002
0.095756002 0.0041964781 0.43800002
0.096739367 0.004206059 0.43900001
0.097504102 0.004206059 0.43900001
0.098268837 0.004206059 0.43900001
0.099033579 0.004206059 0.43900001
0.066386752 0.0051066731 0.45100003
0.066874512 0.0050840275 0.44900003
0.067656673 0.0050840275 0.44900003
0.067981556 0.0050500585 0.44600001
0.068758488 0.0050500585 0.44600001
0.069379508 0.0050387355 0.44500002
0.06999705 0.0050274124 0.44400004
0.070611104 0.0050160894 0.44300002
0.071221672 0.0050047664 0.44200003
0.071991637 0.0050047664 0.44200003
0.072596982 0.0049934434 0.44100001
0.073365204 0.0049934434 0.44100001
0.073965326 0.0049821204 0.44000003
0.074731804 0.0049821204 0.44000003
0.075326696 0.0049707973 0.43900001
0.076091439 0.0049707973 0.43900001
0.076856174 0.0049707973 0.43900001
0.077620909 0.0049707973 0.43900001
0.078385651 0.0049707973 0.43900001
0.07897009 0.0049594743 0.43800002
0.079733089 0.0049594743 0.43800002
0.08049608 0.0049594743 0.43800002
0.081259079 0.0049594743 0.43800002
0.081834808 0.0049481513 0.43700001
0.082596064 0.0049481513 0.43700001
0.083357319 0.0049481513 0.43700001
0.084503554 0.0049707973 0.43900001
0.085268289 0.0049707973 0.43900001
0.086033031 0.0049707973 0.43900001
0.086797766 0.0049707973 0.43900001
0.087562509 0.0049707973 0.43900001
0.088327244 0.0049707973 0.43900001
0.089091979 0.0049707973 0.43900001
0.089856721 0.0049707973 0.43900001
0.090621457 0.0049707973 0.43900001
0.091386199 0.0049707973 0.43900001
0.091941021 0.0049594743 0.43800002
0.092915669 0.0049707973 0.43900001
0.093467019 0.0049594743 0.43800002
0.094230011 0.0049594743 0.43800002
0.09499301 0.0049594743 0.43800002
0.095974624 0.0049707973 0.43900001
0.096739367 0.0049707973 0.43900001
0.097504102 0.0049707973 0.43900001
0.098268837 0.0049707973 0.43900001
0.099033579 0.0049707973 0.43900001
0.10002565 0.0049821204 0.44000003
0.066386752 0.0058923154 0.45100003
0.066874512 0.0058661853 0.44900003
0.067656673 0.0058661853 0.44900003
0.068286404 0.0058531202 0.44800001
0.068450153 0.0058008605 0.44400004
0.069223598 0.0058008605 0.44400004
0.069681749 0.0057747304 0.44200003
0.070451714 0.0057747304 0.44200003
0.071221672 0.0057747304 0.44200003
0.07182876 0.0057616653 0.44100001
0.072596982 0.0057616653 0.44100001
0.073198847 0.0057486002 0.44000003
0.073965326 0.0057486002 0.44000003
0.074731804 0.0057486002 0.44000003
0.075498283 0.0057486002 0.44000003
0.076091439 0.0057355352 0.43900001
0.076856174 0.0057355352 0.43900001
0.077620909 0.0057355352 0.43900001
0.078385651 0.0057355352 0.43900001
0.079150386 0.0057355352 0.43900001
0.079915129 0.0057355352 0.43900001
0.080679864 0.0057355352 0.43900001
0.081444599 0.0057355352 0.43900001
0.082022078 0.0057224706 0.43800002
0.08278507 0.0057224706 0.43800002
0.083548069 0.0057224706 0.43800002
0.084503554 0.0057355352 0.43900001
0.085268289 0.0057355352 0.43900001
0.086033031 0.0057355352 0.43900001
0.086797766 0.0057355352 0.43900001
0.087562509 0.0057355352 0.43900001
0.088327244 0.0057355352 0.43900001
0.089091979 0.0057355352 0.43900001
0.089856721 0.0057355352 0.43900001
0.090621457 0.0057355352 0.43900001
0.091386199 0.0057355352 0.43900001
0.092150934 0.0057355352 0.43900001
0.092915669 0.0057355352 0.43900001
0.093680412 0.0057355352 0.43900001
0.094445147 0.0057355352 0.43900001
0.095209889 0.0057355352 0.43900001
0.095974624 0.0057355352 0.43900001
0.096739367 0.0057355352 0.43900001
0.097504102 0.0057355352 0.43900001
0.098268837 0.0057355352 0.43900001
0.099033579 0.0057355352 0.43900001
0.10002565 0.0057486002 0.44000003
0.1010212 0.0057616653 0.44100001
0.10178942 0.0057616653 0.44100001
0.10255764 0.0057616653 0.44100001
0.066092357 0.0066483435 0.44900003
0.066874512 0.0066483435 0.44900003
0.067505985 0.0066335364 0.44800001
0.068286404 0.0066335364 0.44800001
0.068450153 0.0065743085 0.44400004
0.069067694 0.0065595014 0.44300002
0.069681749 0.0065446943 0.44200003
0.070451714 0.0065446943 0.44200003
0.071221672 0.0065446943 0.44200003
0.07182876 0.0065298872 0.44100001
0.072596982 0.0065298872 0.44100001
0.073198847 0.0065150806 0.44000003
0.073965326 0.0065150806 0.44000003
0.074731804 0.0065150806 0.44000003
0.075498283 0.0065150806 0.44000003
0.076264761 0.0065150806 0.44000003
0.077031247 0.0065150806 0.44000003
0.077620909 0.0065002735 0.43900001
0.078385651 0.0065002735 0.43900001
0.079150386 0.0065002735 0.43900001
0.079915129 0.0065002735 0.43900001
0.080679864 0.0065002735 0.43900001
0.081444599 0.0065002735 0.43900001
0.082209341 0.0065002735 0.43900001
0.082974076 0.0065002735 0.43900001
0.083738819 0.0065002735 0.43900001
0.084696047 0.0065150806 0.44000003
0.085462525 0.0065150806 0.44000003
0.086033031 0.0065002735 0.43900001
0.086797766 0.0065002735 0.43900001
0.087761968 0.0065150806 0.44000003
0.088528447 0.0065150806 0.44000003
0.089294925 0.0065150806 0.44000003
0.090061404 0.0065150806 0.44000003
0.090827882 0.0065150806 0.44000003
0.091594368 0.0065150806 0.44000003
0.092360847 0.0065150806 0.44000003
0.093127325 0.0065150806 0.44000003
0.093680412 0.0065002735 0.43900001
0.094445147 0.0065002735 0.43900001
0.095209889 0.0065002735 0.43900001
0.095974624 0.0065002735 0.43900001
0.096739367 0.0065002735 0.43900001
0.097504102 0.0065002735 0.43900001
0.098268837 0.0065002735 0.43900001
0.099259168 0.0065150806 0.44000003
0.10002565 0.0065150806 0.44000003
0.1010212 0.0065298872 0.44100001
0.10178942 0.0065298872 0.44100001
0.10255764 0.0065298872 0.44100001
0.065310195 0.0074305013 0.44900003
0.065945156 0.0074139526 0.44800001
0.066725574 0.0074139526 0.44800001
0.067204624 0.0073808543 0.44600001
0.067676701 0.0073477565 0.44400004
0.068295985 0.0073312074 0.44300002
0.068911783 0.0073146583 0.44200003
0.069681749 0.0073146583 0.44200003
0.070451714 0.0073146583 0.44200003
0.071221672 0.0073146583 0.44200003
0.07182876 0.0072981096 0.44100001
0.072596982 0.0072981096 0.44100001
0.073365204 0.0072981096 0.44100001
0.073965326 0.0072815605 0.44000003
0.074731804 0.0072815605 0.44000003
0.075498283 0.0072815605 0.44000003
0.076264761 0.0072815605 0.44000003
0.077031247 0.0072815605 0.44000003
0.077797726 0.0072815605 0.44000003
0.078564204 0.0072815605 0.44000003
0.079330683 0.0072815605 0.44000003
0.080097169 0.0072815605 0.44000003
0.080863647 0.0072815605 0.44000003
0.081630126 0.0072815605 0.44000003
0.082396604 0.0072815605 0.44000003
0.083163083 0.0072815605 0.44000003
0.083929569 0.0072815605 0.44000003
0.084696047 0.0072815605 0.44000003
0.085462525 0.0072815605 0.44000003
0.086229004 0.0072815605 0.44000003
0.086995482 0.0072815605 0.44000003
0.087761968 0.0072815605 0.44000003
0.088528447 0.0072815605 0.44000003
0.089294925 0.0072815605 0.44000003
0.090061404 0.0072815605 0.44000003
0.090827882 0.0072815605 0.44000003
0.091594368 0.0072815605 0.44000003
0.092360847 0.0072815605 0.44000003
0.093127325 0.0072815605 0.44000003
0.093893804 0.0072815605 0.44000003
0.09466029 0.0072815605 0.44000003
0.095426768 0.0072815605 0.44000003
0.096193247 0.0072815605 0.44000003
0.096959725 0.0072815605 0.44000003
0.097726204 0.0072815605 0.44000003
0.098492689 0.0072815605 0.44000003
0.099259168 0.0072815605 0.44000003
0.10002565 0.0072815605 0.44000003
0.1010212 0.0072981096 0.44100001
0.10178942 0.0072981096 0.44100001
0.10255764 0.0072981096 0.44100001
0.10356016 0.0073146583 0.44200003
0.065164737 0.0081943683 0.44800001
0.065797955 0.0081760772 0.44700003
0.066427693 0.0081577869 0.44600001
0.067053936 0.0081394957 0.44500002
0.067676701 0.0081212046 0.44400004
0.068295985 0.0081029134 0.44300002
0.069067694 0.0081029134 0.44300002
0.069681749 0.0080846222 0.44200003
0.070451714 0.0080846222 0.44200003
0.071221672 0.0080846222 0.44200003
0.07182876 0.008066332 0.44100001
0.072596982 0.008066332 0.44100001
0.073365204 0.008066332 0.44100001
0.074133426 0.008066332 0.44100001
0.074901648 0.008066332 0.44100001
0.07566987 0.008066332 0.44100001
0.076264761 0.0080480408 0.44000003
0.077031247 0.0080480408 0.44000003
0.077797726 0.0080480408 0.44000003
0.078564204 0.0080480408 0.44000003
0.079330683 0.0080480408 0.44000003
0.080097169 0.0080480408 0.44000003
0.080863647 0.0080480408 0.44000003
0.081630126 0.0080480408 0.44000003
0.082396604 0.0080480408 0.44000003
0.083163083 0.0080480408 0.44000003
0.083929569 0.0080480408 0.44000003
0.084888533 0.008066332 0.44100001
0.085462525 0.0080480408 0.44000003
0.086229004 0.0080480408 0.44000003
0.086995482 0.0080480408 0.44000003
0.087961428 0.008066332 0.44100001
0.08872965 0.008066332 0.44100001
0.089497872 0.008066332 0.44100001
0.090061404 0.0080480408 0.44000003
0.090827882 0.0080480408 0.44000003
0.091594368 0.0080480408 0.44000003
0.092360847 0.0080480408 0.44000003
0.093338981 0.008066332 0.44100001
0.093893804 0.0080480408 0.44000003
0.09466029 0.0080480408 0.44000003
0.095426768 0.0080480408 0.44000003
0.096193247 0.0080480408 0.44000003
0.096959725 0.0080480408 0.44000003
0.097726204 0.0080480408 0.44000003
0.098492689 0.0080480408 0.44000003
0.099259168 0.0080480408 0.44000003
0.10025298 0.008066332 0.44100001
0.1010212 0.008066332 0.44100001
0.10178942 0.008066332 0.44100001
0.10255764 0.008066332 0.44100001
0.10332587 0.008066332 0.44100001
0.063319959 0.0089347186 0.44600001
0.06409689 0.0089347186 0.44600001
0.064873829 0.0089347186 0.44600001
0.065650761 0.0089347186 0.44600001
0.066427693 0.0089347186 0.44600001
0.067053936 0.0089146858 0.44500002
0.067676701 0.0088946521 0.44400004
0.068295985 0.0088746194 0.44300002
0.069067694 0.0088746194 0.44300002
0.069681749 0.0088545866 0.44200003
0.070451714 0.0088545866 0.44200003
0.071221672 0.0088545866 0.44200003
0.071991637 0.0088545866 0.44200003
0.072761603 0.0088545866 0.44200003
0.073365204 0.0088345539 0.44100001
0.074133426 0.0088345539 0.44100001
0.074901648 0.0088345539 0.44100001
0.07566987 0.0088345539 0.44100001
0.076438092 0.0088345539 0.44100001
0.077206314 0.0088345539 0.44100001
0.077974536 0.0088345539 0.44100001
0.078564204 0.0088145202 0.44000003
0.079510979 0.0088345539 0.44100001
0.080279201 0.0088345539 0.44100001
0.081047423 0.0088345539 0.44100001
0.081630126 0.0088145202 0.44000003
0.082396604 0.0088145202 0.44000003
0.083352089 0.0088345539 0.44100001
0.084120311 0.0088345539 0.44100001
0.084888533 0.0088345539 0.44100001
0.085656755 0.0088345539 0.44100001
0.086424984 0.0088345539 0.44100001
0.087193206 0.0088345539 0.44100001
0.087961428 0.0088345539 0.44100001
0.08872965 0.0088345539 0.44100001
0.089497872 0.0088345539 0.44100001
0.090266094 0.0088345539 0.44100001
0.091034316 0.0088345539 0.44100001
0.091802537 0.0088345539 0.44100001
0.092570759 0.0088345539 0.44100001
0.093338981 0.0088345539 0.44100001
0.094107203 0.0088345539 0.44100001
0.094875425 0.0088345539 0.44100001
0.095426768 0.0088145202 0.44000003
0.096193247 0.0088145202 0.44000003
0.097180091 0.0088345539 0.44100001
0.097948313 0.0088345539 0.44100001
0.098716535 0.0088345539 0.44100001
0.099259168 0.0088145202 0.44000003
0.10025298 0.0088345539 0.44100001
0.1010212 0.0088345539 0.44100001
0.10178942 0.0088345539 0.44100001
0.10255764 0.0088345539 0.44100001
0.10356016 0.0088545866 0.44200003
0.10433013 0.0088545866 0.44200003
0.1051001 0.0088545866 0.44200003
0.10610958 0.0088746194 0.44300002
0.063319959 0.0097116502 0.44600001
0.06409689 0.0097116502 0.44600001
0.064873829 0.0097116502 0.44600001
0.06550356 0.0096898759 0.44500002
0.066278748 0.0096898759 0.44500002
0.067053936 0.0096898759 0.44500002
0.067676701 0.0096681006 0.44400004
0.068450153 0.0096681006 0.44400004
0.069067694 0.0096463254 0.44300002
0.069681749 0.0096245511 0.44200003
0.070451714 0.0096245511 0.44200003
0.071221672 0.0096245511 0.44200003
0.071991637 0.0096245511 0.44200003
0.072761603 0.0096245511 0.44200003
0.073531568 0.0096245511 0.44200003
0.074133426 0.0096027758 0.44100001
0.075071491 0.0096245511 0.44200003
0.075841457 0.0096245511 0.44200003
0.076438092 0.0096027758 0.44100001
0.077206314 0.0096027758 0.44100001
0.077974536 0.0096027758 0.44100001
0.078742757 0.0096027758 0.44100001
0.079510979 0.0096027758 0.44100001
0.080279201 0.0096027758 0.44100001
0.081047423 0.0096027758 0.44100001
0.081815645 0.0096027758 0.44100001
0.082583867 0.0096027758 0.44100001
0.083352089 0.0096027758 0.44100001
0.084120311 0.0096027758 0.44100001
0.085081026 0.0096245511 0.44200003
0.085656755 0.0096027758 0.44100001
0.086620957 0.0096245511 0.44200003
0.087390922 0.0096245511 0.44200003
0.087961428 0.0096027758 0.44100001
0.08872965 0.0096027758 0.44100001
0.089497872 0.0096027758 0.44100001
0.090266094 0.0096027758 0.44100001
0.091034316 0.0096027758 0.44100001
0.091802537 0.0096027758 0.44100001
0.092570759 0.0096027758 0.44100001
0.093338981 0.0096027758 0.44100001
0.094107203 0.0096027758 0.44100001
0.094875425 0.0096027758 0.44100001
0.095643647 0.0096027758 0.44100001
0.096411869 0.0096027758 0.44100001
0.097180091 0.0096027758 0.44100001
0.097948313 0.0096027758 0.44100001
0.098716535 0.0096027758 0.44100001
0.099484757 0.0096027758 0.44100001
0.10025298 0.0096027758 0.44100001
0.1010212 0.0096027758 0.44100001
0.10202023 0.0096245511 0.44200003
0.1027902 0.0096245511 0.44200003
0.10356016 0.0096245511 0.44200003
0.10433013 0.0096245511 0.44200003
0.1051001 0.0096245511 0.44200003
0.10610958 0.0096463254 0.44300002
0.064728372 0.010465066 0.44500002
0.06550356 0.010465066 0.44500002
0.066278748 0.010465066 0.44500002
0.066903256 0.010441548 0.44400004
0.067676701 0.010441548 0.44400004
0.068450153 0.010441548 0.44400004
0.069067694 0.010418031 0.44300002
0.069681749 0.010394515 0.44200003
0.070451714 0.010394515 0.44200003
0.071221672 0.010394515 0.44200003
0.071991637 0.010394515 0.44200003
0.072761603 0.010394515 0.44200003
0.073531568 0.010394515 0.44200003
0.074301533 0.010394515 0.44200003
0.075071491 0.010394515 0.44200003
0.075841457 0.010394515 0.44200003
